ply
format ascii 1.0
element vertex 1287
property float x
property float y
property float z
property uchar red
property uchar green
property uchar blue
end_header
13.0163 6.87679 -15.2356  255 255 255
23.3922 -1.20569 -2.4744  255 255 255
39.6865 1.46045 -11.5227  255 255 255
23.7818 1.7956 -8.07749  255 255 255
29.5568 3.08302 -0.0659345  255 255 255
29.5568 3.08302 -0.0659369  255 255 255
24.571 1.05942 -8.58157  255 255 255
39.2626 0.0323949 -4.97688  255 255 255
17.6545 22.4917 -5.9541  255 255 255
13.5745 3.52715 -12.7714  255 255 255
13.4855 3.25907 -14.2305  255 255 255
41.0275 0.832331 -5.91751  255 255 255
17.6799 27.8912 -23.9497  255 255 255
16.292 25.663 -24.4109  255 255 255
38.295 0.214361 -5.50032  255 255 255
12.979 2.78642 -13.8014  255 255 255
37.7905 1.56532 -5.92405  255 255 255
24.6841 1.65262 -8.29974  255 255 255
38.4289 -0.488586 -11.9716  255 255 255
51.8835 7.7311 -17.5112  255 255 255
51.8835 7.7311 -17.5112  255 255 255
12.2727 33.9308 12.0379  255 255 255
12.3229 32.9274 13.1785  255 255 255
8.93544 9.98445 33.2514  255 255 255
8.93543 9.98446 33.2514  255 255 255
11.0472 6.67837 35.946  255 255 255
21.4505 3.0863 35.9141  255 255 255
19.8851 3.11988 38.8507  255 255 255
17.9308 29.7492 12.3472  255 255 255
16.7147 30.4787 9.8092  255 255 255
8.98431 9.84104 32.4625  255 255 255
9.03709 9.6669 31.8116  255 255 255
13.686 6.91799 34.4374  255 255 255
43.9127 4.29057 25.8154  255 255 255
19.5453 3.5411 43.9208  255 255 255
27.7221 1.51564 37.8448  255 255 255
12.4964 34.2107 12.3183  255 255 255
15.2464 30.9001 9.29736  255 255 255
9.05408 10.012 32.9739  255 255 255
21.8096 3.54407 42.2127  255 255 255
18.1384 32.4534 10.1476  255 255 255
9.3256 9.6516 33.7537  255 255 255
18.6077 3.95404 44.3438  255 255 255
18.5942 3.95463 44.324  255 255 255
43.0902 4.81441 26.416  255 255 255
18.6719 3.49189 44.4294  255 255 255
18.4608 4.29185 44.1748  255 255 255
17.6731 4.21897 44.5361  255 255 255
9.05171 9.21619 30.7968  255 255 255
13.0788 7.49765 33.5877  255 255 255
11.7626 6.71154 31.9998  255 255 255
44.1698 2.91336 22.5423  255 255 255
43.0721 0.939165 24.8417  255 255 255
43.1433 6.4209 28.2972  255 255 255
15.9404 13.2304 29.5922  255 255 255
21.5237 26.7856 -26.8358  255 255 255
13.0009 6.12431 -11.9065  255 255 255
51.7584 7.0545 -20.6186  255 255 255
51.6853 6.74571 -19.6932  255 255 255
13.4644 4.36125 -18.8598  255 255 255
31.9516 4.30208 -1.66739  255 255 255
13.2653 1.84193 -22.2654  255 255 255
13.2652 1.84193 -22.2654  255 255 255
13.4562 0.36842 -24.8943  255 255 255
13.2392 0.545335 -22.2019  255 255 255
39.2461 0.6164 -12.078  255 255 255
39.2461 0.616406 -12.078  255 255 255
39.3774 0.650394 -11.0195  255 255 255
38.7209 -1.05127 -13.792  255 255 255
38.4531 0.919289 -5.71711  255 255 255
38.0355 0.0705009 -5.60566  255 255 255
38.6298 0.149612 -4.9923  255 255 255
18.1346 28.5067 -24.7771  255 255 255
21.8316 26.798 -27.0912  255 255 255
20.275 25.5091 -27.3703  255 255 255
20.1688 22.7263 -25.7852  255 255 255
13.2193 5.56645 -12.7476  255 255 255
13.9061 4.60864 -24.0115  255 255 255
13.4533 3.69172 -11.7417  255 255 255
13.4301 3.57143 -11.7124  255 255 255
13.4225 3.4396 -12.0969  255 255 255
38.1035 0.60053 -13.0045  255 255 255
37.8393 1.06711 -7.24579  255 255 255
38.4641 -0.741567 -13.0525  255 255 255
37.634 1.03017 -6.32309  255 255 255
25.3062 1.94893 -3.39963  255 255 255
37.696 0.657834 -7.0865  255 255 255
37.8223 0.587478 -6.56777  255 255 255
23.6036 2.17423 -1.86538  255 255 255
23.6268 2.1577 -1.59878  255 255 255
19.38 27.6999 -23.9596  255 255 255
21.8441 26.5847 -27.2265  255 255 255
17.342 25.8778 -27.6286  255 255 255
20.1377 23.1577 -25.8711  255 255 255
13.8092 3.96056 -22.7613  255 255 255
24.0846 1.25044 -8.13268  255 255 255
37.7746 0.456722 -6.99244  255 255 255
26.0705 -0.604065 -10.075  255 255 255
38.9968 0.58751 -5.06492  255 255 255
38.3801 0.404985 -5.37648  255 255 255
23.7447 1.34138 -1.40708  255 255 255
19.9068 24.9127 -28.5799  255 255 255
13.429 7.15413 -12.9306  255 255 255
39.7321 1.43677 -11.6001  255 255 255
30.0467 3.5635 0.784539  255 255 255
24.1111 0.823431 -8.33573  255 255 255
23.8838 0.518783 -1.14486  255 255 255
23.8838 0.518783 -1.14486  255 255 255
23.4684 -1.20404 -1.90632  255 255 255
16.9013 24.3961 -26.5488  255 255 255
16.1271 23.355 -25.3128  255 255 255
23.7979 1.2862 -1.44564  255 255 255
23.7979 1.2862 -1.44564  255 255 255
24.7502 -0.499161 -1.66177  255 255 255
51.7076 1.53773 -17.0636  255 255 255
24.2369 1.1119 -8.231  255 255 255
38.9216 0.390365 -5.14351  255 255 255
24.113 0.531285 -1.32773  255 255 255
18.8047 27.8955 -25.0076  255 255 255
23.7185 1.00688 -1.24426  255 255 255
23.6721 1.04473 -1.06573  255 255 255
24.6313 -0.285927 -1.95059  255 255 255
13.0847 6.13617 -12.6852  255 255 255
13.0706 6.13836 -12.6908  255 255 255
38.3283 -0.540326 -7.48947  255 255 255
13.2239 5.41486 -12.2608  255 255 255
24.0375 0.386339 -1.06804  255 255 255
23.6749 2.07805 -1.87882  255 255 255
18.4066 23.785 -27.2547  255 255 255
18.6081 23.3082 -26.5461  255 255 255
13.423 4.17515 -13.7921  255 255 255
13.1996 1.59949 -14.9717  255 255 255
16.0269 22.4809 -5.47216  255 255 255
9.82223 18.9069 18.9434  255 255 255
13.2629 11.566 -9.28776  255 255 255
13.2624 11.5619 -9.28764  255 255 255
12.3501 11.0558 -9.27051  255 255 255
10.8483 9.62111 11.9549  255 255 255
11.3185 11.0798 -9.38016  255 255 255
12.7184 10.676 -9.43677  255 255 255
10.9415 9.56546 10.811  255 255 255
11.7734 10.0999 -9.37427  255 255 255
9.95331 8.49841 21.3641  255 255 255
10.8405 8.83934 11.6693  255 255 255
9.88495 8.4179 21.683  255 255 255
9.88458 8.40169 21.6837  255 255 255
9.94349 8.38912 21.047  255 255 255
10.8732 8.69129 10.9524  255 255 255
9.88133 8.14427 21.6974  255 255 255
9.89651 8.13244 21.6052  255 255 255
9.89651 8.13244 21.6052  255 255 255
10.9426 8.21492 10.7809  255 255 255
10.8351 8.04998 12.3973  255 255 255
10.7775 8.06055 12.3843  255 255 255
12.3214 6.2817 -7.13987  255 255 255
12.4933 5.78914 -6.59236  255 255 255
11.443 5.7686 7.39564  255 255 255
11.1925 5.65586 8.44674  255 255 255
11.2161 5.65828 8.45784  255 255 255
9.73107 5.65672 19.3242  255 255 255
13.3491 5.56948 20.137  255 255 255
8.49154 5.63142 19.7777  255 255 255
8.39372 5.28788 22.2404  255 255 255
8.98107 4.33433 16.3785  255 255 255
8.91019 4.1797 17.1684  255 255 255
8.98317 3.87592 15.2432  255 255 255
8.99426 3.64657 15.2467  255 255 255
9.01288 3.5138 15.2041  255 255 255
10.7065 2.39221 10.9374  255 255 255
12.0933 0.869687 -2.14459  255 255 255
9.9293 0.0417976 2.44781  255 255 255
9.89801 0.0429708 3.79094  255 255 255
8.87266 1.08676 17.0925  255 255 255
16.068 1.05303 16.4558  255 255 255
21.6126 1.09725 6.35582  255 255 255
19.9158 0.232068 7.15645  255 255 255
19.6387 0.0447882 7.58085  255 255 255
21.7625 0.478118 6.3251  255 255 255
-24.9981 -39.9331 -17.1816  255 255 255
15.8246 23.2035 -5.8275  255 255 255
13.7697 11.7612 -9.26711  255 255 255
13.3452 11.6392 -9.4282  255 255 255
13.3492 11.6392 -9.42395  255 255 255
10.9215 11.0548 -9.38346  255 255 255
11.6567 10.7128 -9.41495  255 255 255
9.8933 8.72529 22.0212  255 255 255
9.88585 8.71129 21.7602  255 255 255
9.88585 8.71129 21.7602  255 255 255
11.3446 10.3216 -8.94417  255 255 255
10.8664 8.90125 11.3948  255 255 255
9.87612 8.45968 21.8676  255 255 255
10.9085 8.75506 11.3089  255 255 255
9.9146 8.37361 21.5019  255 255 255
9.95206 8.31606 21.1227  255 255 255
10.8404 8.63381 11.9671  255 255 255
9.90789 8.29355 21.585  255 255 255
9.91989 8.28974 21.5815  255 255 255
9.87927 8.0594 22.0287  255 255 255
10.7986 8.35219 12.2252  255 255 255
10.1295 8.01043 19.4489  255 255 255
15.3178 6.31311 18.5111  255 255 255
12.3769 6.61804 -4.04843  255 255 255
15.4162 6.00996 18.5765  255 255 255
12.3234 6.09673 -4.75472  255 255 255
11.9505 5.88489 -0.838707  255 255 255
8.9841 5.61848 15.8352  255 255 255
8.3817 5.58392 22.3419  255 255 255
8.93223 5.51715 15.9479  255 255 255
15.225 5.40051 18.4684  255 255 255
11.6421 4.89746 8.07151  255 255 255
15.4217 4.80346 18.645  255 255 255
10.1105 3.97176 2.90031  255 255 255
8.98788 4.32941 15.8183  255 255 255
8.97434 3.95457 15.3593  255 255 255
10.7008 3.64687 11.4435  255 255 255
9.05463 3.56052 15.3703  255 255 255
9.09835 3.1025 15.2111  255 255 255
10.7087 1.86771 -6.49535  255 255 255
8.94286 2.6735 17.0156  255 255 255
8.52119 2.5318 20.6929  255 255 255
10.9725 1.78368 11.2175  255 255 255
10.8034 1.86475 13.4094  255 255 255
10.8034 1.86475 13.4094  255 255 255
16.8327 -0.143512 7.36852  255 255 255
16.0363 0.902644 16.5961  255 255 255
17.8673 -0.083276 8.56689  255 255 255
17.9129 -0.0695711 8.59705  255 255 255
17.4198 0.173265 13.5757  255 255 255
19.9093 0.0150138 7.24292  255 255 255
19.7319 -0.0857651 7.42002  255 255 255
17.0154 0.40881 18.5145  255 255 255
15.8933 22.8712 -5.71476  255 255 255
9.79998 19.2078 19.0155  255 255 255
9.80349 19.2094 19.0148  255 255 255
9.88683 18.761 19.0154  255 255 255
10.0909 9.35953 19.6573  255 255 255
13.3564 10.5125 -9.39993  255 255 255
9.87816 8.15765 21.9305  255 255 255
9.91589 8.05103 21.5946  255 255 255
13.0368 8.98783 -10.0834  255 255 255
10.0792 7.99511 19.8812  255 255 255
10.7891 8.18629 12.2279  255 255 255
12.4543 8.87983 -9.48419  255 255 255
10.9161 8.19408 11.1182  255 255 255
10.693 8.07158 13.9859  255 255 255
10.8791 9.03452 -9.20661  255 255 255
10.8158 8.00573 12.1484  255 255 255
10.8644 7.94817 11.2613  255 255 255
10.7799 7.29454 14.694  255 255 255
10.7839 7.2885 14.692  255 255 255
15.3169 5.95928 18.5443  255 255 255
11.981 6.08974 -0.877093  255 255 255
11.3837 5.60449 7.33164  255 255 255
11.392 5.60094 7.33939  255 255 255
11.4102 5.60011 7.34702  255 255 255
15.3057 5.36831 18.5105  255 255 255
15.1248 5.3408 18.445  255 255 255
8.87403 5.38557 17.0188  255 255 255
10.5289 2.8006 13.5083  255 255 255
15.7726 0.850029 15.4462  255 255 255
19.6737 0.461099 7.4429  255 255 255
19.7649 0.402011 7.34642  255 255 255
19.7487 0.40184 7.34022  255 255 255
19.6323 0.134924 7.53226  255 255 255
19.8265 0.072703 7.2426  255 255 255
19.7264 0.00825594 7.40465  255 255 255
19.7259 0.010345 7.40472  255 255 255
16.9881 0.377982 18.1388  255 255 255
9.84405 18.983 19.1032  255 255 255
9.75374 19.0417 18.9486  255 255 255
15.2886 9.09913 18.7494  255 255 255
10.9273 10.4384 15.6164  255 255 255
15.7834 8.56055 11.3121  255 255 255
10.8123 9.51305 12.125  255 255 255
10.1659 9.97901 -9.31154  255 255 255
10.8789 8.12654 11.319  255 255 255
11.3246 7.94542 7.94377  255 255 255
11.3117 7.9531 7.93767  255 255 255
10.54 7.13111 16.2755  255 255 255
10.3912 7.14908 16.2913  255 255 255
15.2607 6.43282 18.4934  255 255 255
15.156 6.42687 18.883  255 255 255
11.78 5.1869 4.50897  255 255 255
15.2824 4.47973 18.5431  255 255 255
8.97468 3.77525 15.5384  255 255 255
10.6669 3.66733 11.1174  255 255 255
9.97776 0.717015 1.2531  255 255 255
8.96197 1.7453 17.8009  255 255 255
12.2142 0.244546 -3.32534  255 255 255
16.1064 1.17243 16.4434  255 255 255
16.0165 0.406879 16.1387  255 255 255
17.8525 -0.0475957 8.99202  255 255 255
10.5868 10.9368 14.736  255 255 255
11.0652 9.51746 -9.22758  255 255 255
10.7898 8.14215 11.9507  255 255 255
10.8166 8.14368 11.9588  255 255 255
15.3616 6.19503 18.6057  255 255 255
15.2062 5.86729 18.5049  255 255 255
15.2062 5.86729 18.5049  255 255 255
15.3605 5.2109 18.5499  255 255 255
8.53857 4.53947 19.8156  255 255 255
8.63543 2.43644 19.8855  255 255 255
11.0319 1.49405 6.88726  255 255 255
9.97348 0.175319 3.53964  255 255 255
9.89659 0.155215 3.94729  255 255 255
10.8223 8.85385 12.1183  255 255 255
10.8518 8.73933 11.4998  255 255 255
10.7548 7.1199 14.2699  255 255 255
8.81443 4.19125 16.0885  255 255 255
9.99531 3.09136 2.94981  255 255 255
10.6926 3.38898 11.6878  255 255 255
9.98494 1.146 2.32412  255 255 255
15.0184 1.9064 13.0573  255 255 255
16.0704 0.74376 16.4893  255 255 255
16.0832 0.746139 16.4867  255 255 255
10.6367 8.52585 13.3004  255 255 255
14.7375 6.24364 18.2748  255 255 255
14.7375 6.24364 18.2748  255 255 255
8.58787 3.95212 19.9155  255 255 255
11.8347 1.62563 -4.20917  255 255 255
10.3476 0.0914667 0.65943  255 255 255
16.0946 0.612079 16.2705  255 255 255
15.5753 0.530029 19.2627  255 255 255
10.683 8.55733 12.6626  255 255 255
10.798 6.79854 15.009  255 255 255
15.5306 5.92161 18.6655  255 255 255
15.7267 1.93448 16.5175  255 255 255
17.196 0.567818 9.02145  255 255 255
15.757 0.361731 15.3277  255 255 255
16.0367 0.681958 16.7643  255 255 255
10.7914 7.98221 13.5622  255 255 255
8.73822 4.7078 15.3129  255 255 255
9.93025 4.14342 4.4613  255 255 255
9.90799 1.33611 3.07151  255 255 255
8.92676 2.04964 17.423  255 255 255
12.8793 0.185711 -6.7056  255 255 255
10.0087 -0.323833 1.39483  255 255 255
9.72906 6.17867 15.2565  255 255 255
10.639 3.22317 -11.6284  255 255 255
10.3461 0.848111 4.42901  255 255 255
11.0414 7.61197 15.1516  255 255 255
17.4579 0.541783 8.10354  255 255 255
13.8364 10.0382 -6.84096  255 255 255
9.70342 10.7607 24.2975  255 255 255
11.4683 11.7213 -9.43217  255 255 255
12.6373 11.1914 -9.29092  255 255 255
9.92573 9.45741 21.1904  255 255 255
9.92288 9.4716 21.1013  255 255 255
12.1417 11.0381 -9.19632  255 255 255
10.0116 9.14435 20.4843  255 255 255
13.3963 10.104 -9.34138  255 255 255
10.0199 8.91215 20.4937  255 255 255
10.552 10.1376 -9.66113  255 255 255
10.9191 8.76934 10.5964  255 255 255
10.9147 8.50434 11.4287  255 255 255
9.98242 8.20981 20.5189  255 255 255
9.86107 8.15124 21.7023  255 255 255
9.99648 8.15426 20.3707  255 255 255
9.99648 8.15426 20.3707  255 255 255
10.7015 8.28041 13.1419  255 255 255
10.8079 7.54383 12.1628  255 255 255
10.9793 7.35637 10.3757  255 255 255
16.5907 6.30915 12.9483  255 255 255
8.92246 5.67373 17.0508  255 255 255
10.2943 4.25614 -1.20697  255 255 255
9.77979 3.93877 3.07319  255 255 255
8.54424 4.23657 20.7182  255 255 255
8.44731 4.13706 20.9829  255 255 255
10.739 3.82275 10.5947  255 255 255
10.7372 3.81971 10.5974  255 255 255
10.7394 3.33236 10.6414  255 255 255
11.2824 1.83437 -11.8873  255 255 255
10.5304 1.7004 -0.851544  255 255 255
19.7493 0.0970432 7.35345  255 255 255
9.72178 11.0493 24.337  255 255 255
9.73476 10.9233 24.2435  255 255 255
9.8991 9.49434 21.5511  255 255 255
9.96252 9.42489 20.9931  255 255 255
9.99275 9.43042 20.6673  255 255 255
9.87921 9.35069 21.7261  255 255 255
9.87921 9.35069 21.7261  255 255 255
10.7897 9.93023 10.372  255 255 255
9.98032 9.2608 20.5311  255 255 255
10.8404 9.07986 11.937  255 255 255
10.8166 9.01089 11.7783  255 255 255
10.816 9.00768 11.7769  255 255 255
9.953 8.65533 20.816  255 255 255
9.86764 8.49659 21.7785  255 255 255
9.99976 8.47631 20.6433  255 255 255
10.0609 8.39634 20.2726  255 255 255
11.0169 8.70132 10.2185  255 255 255
10.0564 8.33722 20.1683  255 255 255
10.0564 8.33722 20.1683  255 255 255
9.97709 8.08673 20.8255  255 255 255
9.99328 8.09271 20.6171  255 255 255
9.97688 8.03812 20.9562  255 255 255
9.98402 8.0313 20.9537  255 255 255
10.9875 7.25758 15.9524  255 255 255
12.1059 7.41371 -3.37206  255 255 255
12.2097 6.63946 -3.89671  255 255 255
12.3719 6.04811 -7.03124  255 255 255
12.4759 5.95848 -7.93756  255 255 255
11.8667 5.87484 0.451124  255 255 255
12.6247 5.68738 -8.94328  255 255 255
9.48675 6.01468 24.1689  255 255 255
4.77135 5.77886 22.7572  255 255 255
4.77134 5.77886 22.7572  255 255 255
15.124 5.34391 18.445  255 255 255
11.5974 4.28689 -0.851679  255 255 255
8.9896 3.96138 15.3582  255 255 255
10.7802 2.30392 10.247  255 255 255
8.46065 2.54421 21.0275  255 255 255
11.0053 1.77736 10.9994  255 255 255
10.7995 1.85328 13.1225  255 255 255
10.7995 1.85328 13.1225  255 255 255
15.0094 2.07793 12.1  255 255 255
8.95884 1.04192 15.7819  255 255 255
16.0962 1.05577 15.04  255 255 255
16.0725 0.67622 16.5613  255 255 255
19.6614 0.345518 7.50549  255 255 255
17.0169 0.414907 18.6457  255 255 255
9.82133 9.6787 21.7343  255 255 255
9.88733 9.62901 21.0422  255 255 255
9.89755 9.49533 21.7015  255 255 255
9.90269 9.29728 21.1771  255 255 255
9.90269 9.29728 21.1771  255 255 255
11.0319 9.45286 10.0007  255 255 255
10.8854 8.99149 11.5805  255 255 255
10.0019 8.60803 20.547  255 255 255
9.96292 8.44806 21.1403  255 255 255
9.88381 8.15619 21.9322  255 255 255
10.7377 8.23946 12.8471  255 255 255
10.9248 8.12417 10.6297  255 255 255
10.9639 8.05437 10.3057  255 255 255
10.9689 8.01651 10.0137  255 255 255
10.8696 7.94255 11.2598  255 255 255
10.8895 7.95367 10.9486  255 255 255
10.931 7.94329 10.6368  255 255 255
9.48029 5.69112 24.2897  255 255 255
9.07246 4.16876 15.3646  255 255 255
8.98992 3.06667 15.0466  255 255 255
19.8221 0.0632972 7.24062  255 255 255
9.8962 9.64914 21.7978  255 255 255
10.9202 9.48057 11.0084  255 255 255
10.0081 8.78313 20.6015  255 255 255
10.988 7.29298 15.6841  255 255 255
8.95081 5.33062 16.9913  255 255 255
8.9707 2.63181 15.1985  255 255 255
8.50049 2.8899 21.047  255 255 255
9.92738 0.804063 2.68938  255 255 255
8.44176 1.1104 21.8772  255 255 255
19.936 0.356141 18.7375  255 255 255
21.9829 0.500365 18.3493  255 255 255
10.8059 8.19016 12.495  255 255 255
15.2662 6.09865 18.4862  255 255 255
8.26903 5.90271 21.8587  255 255 255
11.6934 4.86451 4.22352  255 255 255
10.7562 2.61218 10.8132  255 255 255
8.35581 1.92818 24.3064  255 255 255
10.6389 10.644 14.3133  255 255 255
10.8964 10.3667 15.5212  255 255 255
10.8993 8.90037 11.0667  255 255 255
10.6975 8.15494 13.0446  255 255 255
10.8872 8.05897 11.4953  255 255 255
14.9713 5.89819 18.3339  255 255 255
8.42814 4.9718 22.0716  255 255 255
8.42814 4.9718 22.0716  255 255 255
9.11766 3.28258 15.1843  255 255 255
10.8688 9.58528 11.7278  255 255 255
8.48073 5.72719 22.0883  255 255 255
8.44547 5.71327 22.0981  255 255 255
8.4065 3.87139 22.1266  255 255 255
15.9452 0.580544 17.0895  255 255 255
15.0196 0.552049 18.8391  255 255 255
12.5702 4.98321 -5.70564  255 255 255
11.9589 2.71663 -2.97408  255 255 255
15.4433 6.78486 19.2572  255 255 255
15.8348 0.730002 15.5418  255 255 255
12.3989 8.59889 11.8703  255 255 255
14.8972 2.23687 14.2303  255 255 255
9.77787 19.217 19.0092  255 255 255
14.3153 12.7133 18.47  255 255 255
-16.2548 19.7323 23.0264  255 255 255
9.98666 9.36397 20.475  255 255 255
10.0975 9.36746 19.6576  255 255 255
10.0172 9.25655 20.4117  255 255 255
10.0172 9.25656 20.4117  255 255 255
10.0383 9.1042 20.3085  255 255 255
10.0383 9.10421 20.3085  255 255 255
9.91193 8.96668 21.2209  255 255 255
10.8217 8.80214 11.821  255 255 255
10.9076 8.75804 11.3039  255 255 255
10.8159 8.59496 11.8217  255 255 255
10.5904 8.43108 13.4928  255 255 255
10.1386 8.15093 19.4097  255 255 255
11.0012 8.14943 9.87024  255 255 255
9.45735 5.92346 24.0963  255 255 255
10.3068 4.47136 4.91622  255 255 255
9.0987 3.25075 15.408  255 255 255
10.6338 3.08068 12.1066  255 255 255
9.94053 1.65252 12.4405  255 255 255
9.97527 0.794314 2.46289  255 255 255
10.9938 1.68982 11.5666  255 255 255
19.659 0.0793925 7.45272  255 255 255
10.0527 9.68352 19.503  255 255 255
10.0546 9.4039 20.1278  255 255 255
10.0356 9.2564 20.1665  255 255 255
10.094 8.87558 19.8051  255 255 255
10.1087 8.87365 19.8039  255 255 255
10.7756 8.9761 11.5213  255 255 255
10.0598 8.59486 20.1911  255 255 255
10.066 8.42563 20.024  255 255 255
10.0989 8.31483 19.7202  255 255 255
10.9874 7.89416 10.0118  255 255 255
11.0201 7.86277 9.71252  255 255 255
11.4468 6.78189 9.35577  255 255 255
12.6526 5.95181 -7.62651  255 255 255
9.15348 3.70918 15.7507  255 255 255
10.3852 2.08982 14.5496  255 255 255
4.50869 0.52198 10.894  255 255 255
19.7193 0.0226296 7.39671  255 255 255
16.5808 0.661609 23.5859  255 255 255
19.5708 0.360592 18.1611  255 255 255
6.78454 12.2111 22.4376  255 255 255
11.5622 11.6067 -8.9547  255 255 255
11.1456 7.5505 9.02766  255 255 255
8.22031 5.88761 22.9897  255 255 255
12.1975 4.04376 -3.66684  255 255 255
8.99109 2.8568 15.5589  255 255 255
9.06314 2.5851 15.5946  255 255 255
10.7112 2.51452 11.0922  255 255 255
15.7072 0.809228 15.4725  255 255 255
19.6131 0.313099 7.60426  255 255 255
10.4689 10.9775 15.9046  255 255 255
10.0151 9.58599 20.6164  255 255 255
10.927 8.66772 10.7713  255 255 255
10.7746 7.94709 12.5318  255 255 255
11.6094 1.04656 -5.18644  255 255 255
8.51157 2.44019 20.8723  255 255 255
9.81285 0.150896 3.39948  255 255 255
8.33404 1.25847 21.1001  255 255 255
8.5284 1.28618 20.6737  255 255 255
18.8437 0.735644 7.53321  255 255 255
18.8437 0.735642 7.5332  255 255 255
16.2262 0.587395 16.1118  255 255 255
8.34922 1.9353 22.5115  255 255 255
15.7252 0.3517 15.3206  255 255 255
15.7252 0.351701 15.3206  255 255 255
16.9283 0.32884 19.5935  255 255 255
8.49937 2.10683 21.5028  255 255 255
10.686 7.08655 13.1684  255 255 255
9.67914 6.52883 23.6501  255 255 255
7.93839 6.562 22.7828  255 255 255
-1.75746 -25.6289 0.637829  255 255 255
12.3497 -0.357306 -3.48944  255 255 255
11.3026 1.81241 10.6796  255 255 255
10.9065 1.79538 13.4952  255 255 255
17.4254 0.231766 18.186  255 255 255
11.8783 2.37242 10.0974  255 255 255
11.078 2.16365 11.2894  255 255 255
11.3679 1.85638 11.0589  255 255 255
11.4085 4.31314 7.25478  255 255 255
16.1913 1.04198 16.3143  255 255 255
15.6639 2.04489 16.3934  255 255 255
10.7988 4.05963 9.83917  255 255 255
9.09853 3.96015 15.8412  255 255 255
9.14043 1.99991 15.4463  255 255 255
10.8671 9.39416 10.1715  255 255 255
15.8771 3.55107 10.3947  255 255 255
10.7684 2.21086 10.5344  255 255 255
22.3129 0.378904 18.1983  255 255 255
20.0647 0.368692 18.559  255 255 255
16.198 2.37193 10.7691  255 255 255
19.0751 0.302796 18.2713  255 255 255
10.5434 8.49318 8.93192  255 255 255
11.5236 2.00498 12.9806  255 255 255
10.804 1.81945 12.3041  255 255 255
22.6009 0.825859 24.8016  255 255 255
13.9621 5.03023 6.74605  255 255 255
-61.6902 -15.241 -73.0688  255 255 255
10.7862 7.21823 12.2929  255 255 255
8.99263 4.20163 16.1554  255 255 255
9.52352 11.702 19.8593  255 255 255
10.0015 3.42076 2.59612  255 255 255
17.858 -0.0104539 8.39831  255 255 255
12.2795 -0.221906 -3.27244  255 255 255
12.009 5.78832 -1.11498  255 255 255
11.7253 -0.58471 -3.22359  255 255 255
11.6546 4.83887 3.49605  255 255 255
14.4996 6.8661 25.4846  255 255 255
14.4979 1.12777 25.7581  255 255 255
11.7306 6.06905 0.385507  255 255 255
11.9946 5.93849 -1.29356  255 255 255
17.8575 0.0524852 8.7482  255 255 255
12.039 5.42042 -2.75683  255 255 255
22.4318 1.25202 -0.389517  255 255 255
11.9438 6.56393 -0.863766  255 255 255
11.9438 6.56393 -0.863766  255 255 255
12.04 6.39925 -1.83031  255 255 255
12.1837 6.40294 -4.25093  255 255 255
12.2485 6.23913 -3.94319  255 255 255
12.0335 5.95445 -1.73855  255 255 255
12.0713 5.89347 -2.0883  255 255 255
12.0542 5.78431 -1.96474  255 255 255
17.7013 4.68024 3.79254  255 255 255
27.5119 4.95468 15.4171  255 255 255
21.1354 0.165133 6.06335  255 255 255
12.0634 7.43385 -3.404  255 255 255
11.965 5.94186 -1.00693  255 255 255
11.9896 5.93639 -1.29198  255 255 255
12.4513 6.22739 -6.93269  255 255 255
11.9905 6.1177 -1.3895  255 255 255
12.3447 1.54252 -3.45911  255 255 255
12.0549 6.32836 -2.16048  255 255 255
22.197 1.82713 -0.256049  255 255 255
14.489 6.1593 25.4835  255 255 255
40.3518 29.0878 29.3827  255 255 255
-48.1578 -67.4849 -49.3237  255 255 255
10.0156 10.321 26.7779  255 255 255
9.31735 5.91953 27.2606  255 255 255
12.3568 6.0985 -6.13194  255 255 255
12.7501 5.72284 -8.62199  255 255 255
22.4101 1.80924 4.98124  255 255 255
12.3901 5.8375 -6.40719  255 255 255
23.9043 1.36943 4.56599  255 255 255
21.8907 1.29103 1.19648  255 255 255
17.3339 6.75426 -6.90791  255 255 255
14.951 8.89914 -8.10733  255 255 255
20.139 1.40444 -0.0860159  255 255 255
22.7624 1.81099 4.04809  255 255 255
39.7637 33.8545 31.84  255 255 255
8.84152 9.81814 33.7982  255 255 255
15.7436 31.1022 34.2532  255 255 255
39.4684 33.325 31.6755  255 255 255
39.4685 33.325 31.6754  255 255 255
15.0318 27.6619 34.588  255 255 255
15.1976 27.6195 34.5736  255 255 255
15.2933 27.6855 34.4821  255 255 255
9.0134 9.91514 32.2883  255 255 255
-17.5732 14.109 5.3224  255 255 255
8.95527 9.62631 32.6604  255 255 255
11.5208 28.6533 35.9589  255 255 255
39.3306 33.7246 31.9942  255 255 255
15.0161 27.9119 34.5551  255 255 255
8.82462 9.56103 33.8022  255 255 255
37.5695 1.05688 14.3948  255 255 255
15.2302 31.4755 33.9611  255 255 255
39.0116 31.4479 32.3688  255 255 255
13.8662 25.3996 34.8847  255 255 255
8.81897 9.93522 34.327  255 255 255
39.436 30.4535 29.9262  255 255 255
40.1527 29.5087 29.2247  255 255 255
41.9885 25.1122 32.5317  255 255 255
8.97628 10.421 31.6093  255 255 255
10.5942 28.5405 34.5255  255 255 255
14.8226 27.8012 34.6554  255 255 255
13.9474 28.0731 34.3788  255 255 255
14.576 27.553 34.5295  255 255 255
14.4782 27.7546 34.3692  255 255 255
8.83157 9.77913 34.0209  255 255 255
41.4079 27.2351 31.5382  255 255 255
39.2858 31.0332 32.1806  255 255 255
42.3327 25.9903 31.6923  255 255 255
18.3461 13.2254 -4.44087  255 255 255
12.8704 11.7712 -9.62135  255 255 255
12.2176 6.15711 -4.6072  255 255 255
12.3565 6.17523 -5.97789  255 255 255
12.3803 4.93318 -4.01861  255 255 255
23.7317 0.29867 -0.980118  255 255 255
12.63 5.91235 -8.26312  255 255 255
12.6372 5.90902 -8.24297  255 255 255
13.517 4.65425 -9.46547  255 255 255
21.1353 1.33354 1.32761  255 255 255
10.625 2.7668 -6.15545  255 255 255
10.6212 2.76897 -6.15211  255 255 255
21.9134 1.39348 0.976122  255 255 255
10.65 2.44846 -6.11704  255 255 255
20.1411 1.80331 5.09164  255 255 255
23.4737 1.55133 3.87066  255 255 255
23.6075 1.49244 3.63769  255 255 255
14.3195 9.0506 -9.13357  255 255 255
12.6299 6.25116 -9.49531  255 255 255
15.3122 0.322179 -13.5383  255 255 255
11.0729 7.44977 -9.67059  255 255 255
12.4855 6.21508 -7.74764  255 255 255
12.6435 6.35282 -9.63616  255 255 255
12.6135 5.5945 -9.1908  255 255 255
22.5952 2.13735 -0.38315  255 255 255
27.335 3.90895 6.22894  255 255 255
23.8928 1.33769 -1.31243  255 255 255
21.2651 1.36365 1.05274  255 255 255
13.2263 6.46647 -15.5145  255 255 255
12.549 1.52386 -17.6821  255 255 255
18.0979 22.6655 -5.72781  255 255 255
18.0979 22.6655 -5.7278  255 255 255
13.4735 4.70967 -14.8139  255 255 255
21.3058 2.02872 -0.247135  255 255 255
22.4271 1.72874 0.266291  255 255 255
16.1545 31.2633 34.4474  255 255 255
15.3487 31.1156 34.2675  255 255 255
38.4148 32.6152 32.7805  255 255 255
39.2395 32.7166 32.4867  255 255 255
39.2395 32.7166 32.4867  255 255 255
11.3304 28.1684 34.2192  255 255 255
11.3306 27.9558 33.6453  255 255 255
39.7334 30.6372 31.0168  255 255 255
14.1519 25.9011 34.8635  255 255 255
14.2074 25.5246 34.969  255 255 255
14.0209 25.4723 34.7397  255 255 255
13.9663 25.583 34.6267  255 255 255
8.84306 10.1435 36.1122  255 255 255
8.68974 10.0735 35.4682  255 255 255
8.65966 9.66856 37.3493  255 255 255
8.80505 9.91778 35.4489  255 255 255
8.85523 10.0195 34.7204  255 255 255
47.745 11.0577 30.84  255 255 255
8.66157 9.66215 36.2149  255 255 255
8.73678 9.89245 34.4061  255 255 255
8.87265 9.78033 34.3843  255 255 255
8.86767 9.58353 35.0061  255 255 255
8.75731 9.28445 37.0575  255 255 255
8.75065 9.43475 35.5791  255 255 255
8.9299 9.06511 35.2799  255 255 255
8.785 9.06342 35.1046  255 255 255
48.8291 9.25521 29.9388  255 255 255
48.2711 9.00605 30.3422  255 255 255
48.0821 8.15561 30.0513  255 255 255
42.1684 6.13654 35.1725  255 255 255
42.0815 4.64997 35.3682  255 255 255
40.1531 31.4762 34.6906  255 255 255
44.4082 30.9491 34.1488  255 255 255
10.844 28.8605 34.7433  255 255 255
44.5731 29.9123 34.2362  255 255 255
10.9124 28.323 34.5536  255 255 255
15.4334 26.9579 34.7446  255 255 255
41.3626 28.7292 30.4746  255 255 255
43.7043 25.9765 32.8518  255 255 255
43.7044 25.9765 32.8518  255 255 255
8.76769 10.0439 35.8464  255 255 255
8.62655 9.68634 36.9364  255 255 255
8.87336 10.0008 34.0105  255 255 255
8.89346 10.0092 34.0371  255 255 255
8.89154 9.27009 35.7006  255 255 255
8.81303 9.19666 34.9189  255 255 255
41.9306 5.83715 35.4207  255 255 255
41.9345 5.02116 35.3721  255 255 255
41.5914 5.06538 35.7534  255 255 255
29.2226 1.87968 46.8973  255 255 255
12.8212 31.5027 37.4687  255 255 255
44.627 30.878 34.2535  255 255 255
11.4205 28.0159 33.4641  255 255 255
39.6774 28.8053 29.9817  255 255 255
44.025 26.4846 32.9076  255 255 255
42.0716 5.14463 35.4985  255 255 255
42.0716 5.14463 35.4986  255 255 255
39.7891 1.1097 36.2021  255 255 255
17.8751 3.47741 45.1683  255 255 255
15.1199 32.5248 35.9817  255 255 255
8.57472 9.90942 37.3885  255 255 255
8.61487 9.48396 37.0906  255 255 255
8.65554 9.42955 36.7084  255 255 255
8.66448 9.419 36.7097  255 255 255
8.75623 9.04605 35.4546  255 255 255
8.77986 8.99505 33.261  255 255 255
42.1454 5.70223 35.4617  255 255 255
42.1454 5.70223 35.4617  255 255 255
14.6949 31.0443 35.9504  255 255 255
42.67 31.3642 35.0483  255 255 255
44.0099 30.5406 32.626  255 255 255
44.8634 29.1165 33.04  255 255 255
8.61238 9.41118 35.9235  255 255 255
8.61238 9.41118 35.9235  255 255 255
42.1548 9.71409 31.4516  255 255 255
41.7853 5.55712 35.3882  255 255 255
41.7986 5.56171 35.3734  255 255 255
42.4997 5.54058 35.4898  255 255 255
42.4997 5.54058 35.4898  255 255 255
41.685 5.11325 35.4477  255 255 255
42.4086 4.656 35.4822  255 255 255
7.25416 3.77246 35.6536  255 255 255
7.30355 3.10173 35.6825  255 255 255
41.8995 1.02158 34.9708  255 255 255
28.561 2.14559 49.0492  255 255 255
14.5608 32.3136 36.1054  255 255 255
11.084 29.1872 36.3591  255 255 255
11.6209 28.0712 33.5946  255 255 255
40.1761 28.7215 30.1314  255 255 255
29.5961 1.9412 47.6302  255 255 255
29.5961 1.9412 47.6302  255 255 255
15.0301 32.0849 35.966  255 255 255
14.9975 27.119 34.1689  255 255 255
14.9975 27.119 34.1689  255 255 255
44.0384 28.8022 32.7768  255 255 255
41.1119 25.7836 32.27  255 255 255
8.53553 9.37066 37.4809  255 255 255
40.5144 32.8003 33.3809  255 255 255
44.1217 31.6621 33.7421  255 255 255
14.2917 26.9486 34.5172  255 255 255
39.3123 29.6473 31.1065  255 255 255
12.5941 29.5969 35.9222  255 255 255
13.9481 28.5565 36.3128  255 255 255
11.1684 28.8337 34.3473  255 255 255
13.6907 25.9666 35.0092  255 255 255
39.5027 31.1273 31.3707  255 255 255
42.1613 5.46859 35.3986  255 255 255
52.1022 8.10833 -21.287  255 255 255
13.2372 5.82961 -16.8521  255 255 255
13.2451 5.82863 -16.8477  255 255 255
13.5546 4.76536 -20.0519  255 255 255
13.538 4.59861 -12.9541  255 255 255
13.6985 4.69878 -21.5455  255 255 255
13.5877 4.03816 -21.0278  255 255 255
13.3565 3.3995 -13.0517  255 255 255
13.1631 5.90505 -15.4879  255 255 255
13.144 5.88027 -16.0821  255 255 255
13.3124 5.83349 -17.0313  255 255 255
13.6032 4.6823 -20.7976  255 255 255
13.4343 3.43135 -13.318  255 255 255
13.4343 3.43135 -13.318  255 255 255
13.3702 4.81129 -13.375  255 255 255
13.5069 4.05096 -20.0052  255 255 255
13.5069 4.05096 -20.0052  255 255 255
13.5318 3.5396 -11.8872  255 255 255
13.1872 3.24446 -14.5922  255 255 255
13.1872 3.24447 -14.5922  255 255 255
13.3506 7.2608 -13.1611  255 255 255
11.427 2.23627 -19.6018  255 255 255
14.8981 28.7272 -5.28568  255 255 255
15.3583 27.7247 -5.08757  255 255 255
15.3583 27.7247 -5.08756  255 255 255
9.07337 38.1596 -19.0561  255 255 255
15.5154 25.2604 -5.63645  255 255 255
14.7685 25.9884 -5.68015  255 255 255
14.6327 25.5971 -5.42648  255 255 255
16.9024 21.7876 -5.67609  255 255 255
16.8336 21.7328 -5.95711  255 255 255
12.9893 11.7193 -9.48685  255 255 255
11.0202 11.7346 -9.50003  255 255 255
11.6773 11.4522 -9.50849  255 255 255
11.809 11.4446 -10.0221  255 255 255
12.6786 10.9029 -9.51963  255 255 255
13.0069 10.7105 -9.5023  255 255 255
12.2146 10.7064 -9.48754  255 255 255
10.849 9.48844 11.6534  255 255 255
10.7237 9.18538 11.7613  255 255 255
10.3714 8.27209 16.5748  255 255 255
10.6124 8.2216 13.2872  255 255 255
10.7101 8.07516 13.61  255 255 255
10.7101 8.07516 13.61  255 255 255
10.7576 7.92551 12.2561  255 255 255
12.4502 7.13119 16.8852  255 255 255
11.1072 7.56354 9.02166  255 255 255
10.7304 7.34336 14.2504  255 255 255
11.0967 7.30649 8.76596  255 255 255
10.8593 7.1693 11.8244  255 255 255
10.7593 7.03131 14.2642  255 255 255
10.9905 6.63606 16.8238  255 255 255
12.4408 6.4817 -7.24734  255 255 255
11.9171 6.14187 -0.808193  255 255 255
11.4495 6.1204 7.49426  255 255 255
11.4096 6.11968 7.48839  255 255 255
11.9114 5.98153 -0.0193887  255 255 255
11.1976 5.65557 8.21527  255 255 255
10.0623 5.48004 -0.537254  255 255 255
9.87953 3.28899 3.37762  255 255 255
10.3066 2.77289 -1.2653  255 255 255
10.6676 3.18212 11.469  255 255 255
10.6784 3.00213 11.4667  255 255 255
10.7404 1.81326 -7.42543  255 255 255
10.6273 1.83223 -6.37106  255 255 255
10.8359 1.57706 -6.36121  255 255 255
10.6942 2.67299 11.3525  255 255 255
10.7045 2.67498 11.352  255 255 255
8.71834 2.76483 19.8002  255 255 255
9.02352 2.3988 15.247  255 255 255
16.9369 1.94767 -3.00687  255 255 255
10.7487 1.91567 12.1211  255 255 255
9.7949 1.78912 12.9766  255 255 255
15.8794 2.60854 11.4846  255 255 255
-16.9444 -6.04387 -13.3324  255 255 255
17.2887 1.42169 -2.96088  255 255 255
15.7351 1.81565 16.6592  255 255 255
20.9608 1.22327 0.920838  255 255 255
20.9584 0.453331 3.83973  255 255 255
19.5928 0.29718 7.58526  255 255 255
17.5579 0.0994577 12.4438  255 255 255
15.1595 27.5982 -4.85632  255 255 255
16.3397 22.8183 -5.8229  255 255 255
-19.4399 20.7953 18.1631  255 255 255
10.8407 9.07481 11.3527  255 255 255
9.94214 8.33404 21.2398  255 255 255
10.7094 7.95693 12.8619  255 255 255
11.4301 5.97601 7.56502  255 255 255
13.004 5.56228 -11.4184  255 255 255
12.1865 5.5085 -3.72286  255 255 255
11.3413 5.16445 8.1075  255 255 255
11.1441 4.72736 6.97014  255 255 255
9.88691 2.45665 3.21875  255 255 255
9.99728 2.65524 15.9574  255 255 255
11.2686 2.27734 8.91502  255 255 255
10.5902 1.94744 11.2161  255 255 255
15.7168 2.6741 11.6921  255 255 255
15.7168 2.6741 11.6921  255 255 255
10.6577 1.69999 14.994  255 255 255
11.7445 -0.365311 -2.29856  255 255 255
21.4493 1.40158 1.26536  255 255 255
15.6231 27.5502 -5.19393  255 255 255
14.9792 24.688 -4.99643  255 255 255
10.4965 10.9364 14.4353  255 255 255
11.8324 11.5991 -9.50092  255 255 255
11.0657 9.13055 -9.6813  255 255 255
11.5864 8.48137 -9.47062  255 255 255
11.1266 7.92085 7.37963  255 255 255
15.9073 6.13408 10.7301  255 255 255
11.4378 5.96468 7.41412  255 255 255
8.52956 2.79432 20.6739  255 255 255
9.01489 2.18651 15.335  255 255 255
12.0271 0.828947 -3.56366  255 255 255
19.881 0.293152 7.2316  255 255 255
19.6139 0.11697 7.52195  255 255 255
16.7249 28.545 -5.93115  255 255 255
16.7249 28.545 -5.93116  255 255 255
15.2037 28.3885 -5.17122  255 255 255
15.2216 28.3812 -5.15768  255 255 255
14.5067 25.6404 -6.12305  255 255 255
16.0361 23.097 -5.34565  255 255 255
9.9825 11.2054 18.9773  255 255 255
10.9659 8.05858 8.63624  255 255 255
10.6027 7.42523 16.8226  255 255 255
10.5555 7.30929 14.4958  255 255 255
15.9061 6.15588 11.3997  255 255 255
11.8809 5.8761 0.189513  255 255 255
10.6462 2.78357 -0.756251  255 255 255
10.0013 0.704645 1.24802  255 255 255
16.9863 28.6287 -4.89442  255 255 255
15.0779 27.2882 -4.77536  255 255 255
14.7456 27.0554 -4.58597  255 255 255
16.14 22.407 -5.54892  255 255 255
8.92214 4.46508 16.9854  255 255 255
10.0335 2.63332 1.90292  255 255 255
15.6508 0.819436 15.3618  255 255 255
15.6508 0.819435 15.3618  255 255 255
16.9454 28.1888 -5.00461  255 255 255
15.8969 23.1352 -6.53348  255 255 255
17.5642 18.5735 -6.54163  255 255 255
17.0419 1.00855 8.74994  255 255 255
15.0866 29.2926 -5.5392  255 255 255
14.9646 26.9958 -4.91272  255 255 255
14.804 27.2963 -5.13564  255 255 255
11.4851 1.48588 -2.10672  255 255 255
9.8505 1.64938 5.29143  255 255 255
16.8712 27.0816 -5.80351  255 255 255
17.8354 21.8617 -6.40636  255 255 255
11.2762 6.87478 17.1105  255 255 255
10.1159 3.11821 3.78345  255 255 255
16.569 28.6143 -4.59095  255 255 255
16.2884 28.244 -4.5187  255 255 255
14.738 26.9197 -5.70159  255 255 255
10.3828 4.017 0.205249  255 255 255
9.44584 3.99101 15.0522  255 255 255
20.704 1.49574 6.91609  255 255 255
16.4508 0.226873 15.0555  255 255 255
15.5755 28.7845 -6.08199  255 255 255
10.345 3.75796 6.19877  255 255 255
15.0872 25.8685 -6.22059  255 255 255
15.0872 25.8685 -6.22058  255 255 255
15.789 23.5043 -5.20072  255 255 255
14.4249 10.6741 -7.91054  255 255 255
15.7063 0.143972 14.6334  255 255 255
10.7761 3.21956 8.11071  255 255 255
19.5128 0.33494 7.77428  255 255 255
11.4273 6.93397 2.66811  255 255 255
14.6699 25.8779 -5.40868  255 255 255
12.83 11.6079 -9.46874  255 255 255
10.877 9.5919 11.1813  255 255 255
10.951 9.58024 10.8071  255 255 255
10.8143 8.64234 12.3227  255 255 255
10.7414 7.89679 12.7335  255 255 255
10.7397 7.90004 12.7329  255 255 255
10.9963 7.95599 10.1691  255 255 255
11.2336 7.81823 7.22715  255 255 255
12.1786 7.53304 -3.49967  255 255 255
15.9114 6.64843 11.362  255 255 255
12.1649 7.27124 -3.57004  255 255 255
11.9687 5.94149 -1.00761  255 255 255
11.8992 5.80964 -0.0267913  255 255 255
12.5688 5.52932 4.57714  255 255 255
10.9896 4.41522 -1.36967  255 255 255
10.7895 3.84358 10.7834  255 255 255
10.1149 3.3839 1.9474  255 255 255
10.7714 3.67776 10.4933  255 255 255
10.7044 3.36591 11.4673  255 255 255
11.8663 2.49359 8.4122  255 255 255
15.8415 2.85838 11.5569  255 255 255
10.0353 0.177638 1.02672  255 255 255
10.2023 -0.0915677 0.601186  255 255 255
15.9355 1.00054 15.7325  255 255 255
17.9807 -0.136502 8.4963  255 255 255
-31.3437 -50.3399 -51.273  255 255 255
15.2816 29.1881 -5.73308  255 255 255
15.0466 27.7081 -4.74871  255 255 255
14.2754 26.132 -6.01893  255 255 255
9.89882 9.19248 21.569  255 255 255
9.95895 9.16098 21.0081  255 255 255
10.004 8.47367 20.6411  255 255 255
12.0213 7.16221 -2.89336  255 255 255
11.8516 5.87739 0.443375  255 255 255
12.4169 5.59835 -6.9134  255 255 255
8.97182 4.41317 17.046  255 255 255
10.4791 3.15662 -0.943948  255 255 255
10.7852 2.15514 10.2469  255 255 255
15.8156 0.869655 15.2458  255 255 255
19.7647 0.401613 7.34638  255 255 255
16.157 28.7891 -4.43511  255 255 255
14.2136 26.3027 -5.93213  255 255 255
14.3229 25.682 -6.32763  255 255 255
9.91124 8.67974 21.4362  255 255 255
10.9412 8.11024 10.6317  255 255 255
10.8912 7.96318 10.9518  255 255 255
10.9304 7.9516 10.6356  255 255 255
11.3292 7.02654 7.26108  255 255 255
10.5705 2.7931 13.2335  255 255 255
13.1487 1.69389 12.0548  255 255 255
19.8166 0.0606295 7.23868  255 255 255
15.816 27.3635 -4.65585  255 255 255
15.0702 26.4727 -6.14732  255 255 255
10.0917 3.63306 1.05494  255 255 255
8.96861 2.65051 15.201  255 255 255
15.3812 27.414 -5.12844  255 255 255
14.7697 27.8979 -5.29153  255 255 255
10.8975 9.6923 11.1789  255 255 255
11.3948 7.76465 7.18326  255 255 255
16.0679 0.534696 16.5165  255 255 255
8.8799 4.11317 15.5856  255 255 255
8.43002 2.0702 22.1839  255 255 255
15.3076 26.7216 -4.81579  255 255 255
13.4522 4.37083 -18.8934  255 255 255
23.1032 2.33432 -0.280082  255 255 255
14.1457 11.368 -8.24666  255 255 255
12.933 6.9921 -15.0432  255 255 255
19.7131 16.9489 -3.48631  255 255 255
-8.27402 17.1978 22.2277  255 255 255
-11.8903 15.1074 18.4297  255 255 255
10.5854 11.5747 -9.3421  255 255 255
9.89184 9.48974 21.5513  255 255 255
10.2728 11.0832 -9.33286  255 255 255
9.99435 9.0993 21.2137  255 255 255
11.0036 8.60981 10.0681  255 255 255
10.8512 8.41915 12.4485  255 255 255
9.98793 8.04583 20.9603  255 255 255
11.0953 7.30314 9.0434  255 255 255
12.0567 6.51402 -1.63072  255 255 255
20.9841 5.63044 22.4958  255 255 255
9.21088 5.59824 19.3851  255 255 255
11.6645 4.99774 4.51887  255 255 255
12.6223 4.89244 -2.14928  255 255 255
10.2488 3.61175 1.16491  255 255 255
10.6627 3.49115 11.128  255 255 255
10.8433 2.42526 8.76718  255 255 255
10.8452 1.92901 14.362  255 255 255
14.7037 1.21382 25.8978  255 255 255
17.3391 0.553004 24.3561  255 255 255
-61.2581 -74.2374 -66.7786  255 255 255
12.7949 30.0995 10.6962  255 255 255
16.519 12.9477 18.6077  255 255 255
10.0529 8.60347 20.1905  255 255 255
9.98711 8.09648 21.0799  255 255 255
9.98658 8.08786 20.8262  255 255 255
9.98595 8.09286 20.8261  255 255 255
10.608 8.02304 13.4031  255 255 255
10.7195 1.89532 10.8297  255 255 255
11.0599 1.74508 10.4775  255 255 255
10.6561 1.70009 14.9855  255 255 255
17.4081 0.323683 15.3235  255 255 255
18.5511 0.632198 24.2255  255 255 255
1.4986 -19.1008 7.0988  255 255 255
9.65281 19.1129 19.0075  255 255 255
11.032 9.66699 9.18637  255 255 255
9.98965 8.64409 21.0608  255 255 255
10.9099 8.7603 10.9719  255 255 255
15.0619 6.50796 13.1564  255 255 255
8.98892 3.88781 15.5268  255 255 255
10.2367 3.07836 14.2177  255 255 255
15.8962 0.541784 15.2409  255 255 255
17.0754 0.534104 20.1384  255 255 255
14.4691 5.66986 25.3432  255 255 255
8.44929 5.49782 21.7979  255 255 255
14.6247 4.62167 25.7422  255 255 255
8.45224 3.81148 20.8214  255 255 255
8.88641 1.11249 20.2109  255 255 255
15.7875 0.398861 16.9288  255 255 255
8.67226 6.00282 19.4507  255 255 255
16.176 5.11097 10.7712  255 255 255
10.7162 3.62942 11.3247  255 255 255
8.69456 2.34045 19.9672  255 255 255
10.518 1.85861 12.377  255 255 255
8.51879 1.12837 20.9025  255 255 255
8.50309 1.12608 20.9019  255 255 255
17.5206 0.61891 8.92525  255 255 255
16.0736 0.694304 24.444  255 255 255
9.94982 6.39405 14.7235  255 255 255
8.43364 5.69981 22.098  255 255 255
8.69576 5.51852 19.4689  255 255 255
15.1095 0.557923 18.8318  255 255 255
8.64211 5.00477 21.4625  255 255 255
8.30531 4.92623 20.082  255 255 255
8.30532 4.92623 20.082  255 255 255
8.43015 3.77528 21.4617  255 255 255
8.53318 2.02909 20.2509  255 255 255
16.2209 0.237759 14.6603  255 255 255
14.1201 2.11277 13.561  255 255 255
5.98687 10.3243 34.0571  255 255 255
8.84032 9.7373 34.3785  255 255 255
5.96139 10.3872 34.3835  255 255 255
9.7595 18.8509 19.015  255 255 255
8.39297 10.7229 25.9366  255 255 255
12.9271 10.9677 -9.36464  255 255 255
10.1347 9.49609 19.3191  255 255 255
9.93877 8.93621 21.3373  255 255 255
10.802 9.05257 12.2634  255 255 255
11.0159 8.90182 9.78792  255 255 255
10.9209 8.75494 9.67414  255 255 255
10.8472 7.57234 11.7671  255 255 255
15.1629 5.32356 2.61219  255 255 255
8.68159 5.68444 21.7875  255 255 255
8.38328 5.49133 22.2319  255 255 255
12.4331 4.7523 -2.33179  255 255 255
10.5689 4.59673 -0.0722408  255 255 255
12.5806 4.46855 -3.80666  255 255 255
9.92745 4.39688 2.31456  255 255 255
8.45057 4.1295 20.9838  255 255 255
10.6703 3.81967 11.0463  255 255 255
9.83058 2.2509 3.52773  255 255 255
8.90686 2.90493 15.701  255 255 255
8.91681 2.89939 15.7033  255 255 255
10.6821 2.82442 11.4606  255 255 255
10.6773 2.66471 11.0436  255 255 255
9.00976 2.70789 15.4243  255 255 255
19.6775 0.0905036 7.47089  255 255 255
-148.725 -145.332 -85.8406  255 255 255
13.049 11.2149 -9.37177  255 255 255
12.1054 11.297 -9.50477  255 255 255
10.6011 9.89644 13.995  255 255 255
10.0675 9.57029 19.9543  255 255 255
9.86755 10.1402 -9.38009  255 255 255
10.8902 7.92968 10.9451  255 255 255
11.3988 6.77179 9.94548  255 255 255
8.33236 5.57725 22.3463  255 255 255
8.55071 4.12056 20.6547  255 255 255
10.7906 2.3096 10.2505  255 255 255
11.6743 11.7496 -9.42668  255 255 255
10.0401 8.72388 19.8138  255 255 255
10.08 8.06331 20.2092  255 255 255
8.57214 1.13499 21.879  255 255 255
17.0236 0.143835 15.3262  255 255 255
10.6017 10.7109 14.5657  255 255 255
10.7613 7.05765 14.323  255 255 255
10.7456 7.0623 14.3178  255 255 255
14.1211 5.27993 15.9251  255 255 255
8.92493 4.41009 17.0202  255 255 255
10.655 3.76904 10.6638  255 255 255
8.51205 2.81945 20.8582  255 255 255
8.51205 2.81945 20.8582  255 255 255
8.90848 5.91059 16.9091  255 255 255
10.7416 3.30077 10.9806  255 255 255
10.5583 9.93803 13.8372  255 255 255
10.9931 9.57491 10.1461  255 255 255
10.8735 11.0804 -9.4319  255 255 255
10.0267 10.4292 -9.59171  255 255 255
10.1082 10.4732 -9.51514  255 255 255
12.1053 9.81956 -9.98776  255 255 255
10.9833 8.70596 9.96484  255 255 255
11.0131 8.54853 9.7894  255 255 255
10.9811 7.95428 10.1765  255 255 255
11.0691 7.90162 9.54868  255 255 255
10.789 7.56951 13.5037  255 255 255
11.0555 7.70059 9.09383  255 255 255
10.7576 7.15229 14.2049  255 255 255
11.4806 6.16587 7.38151  255 255 255
12.1813 6.24476 -4.767  255 255 255
12.6387 6.11841 -9.63189  255 255 255
12.4497 5.85761 -7.72922  255 255 255
11.945 5.80158 -0.292941  255 255 255
11.8978 5.81048 -0.0263274  255 255 255
12.9797 5.22717 -11.5162  255 255 255
11.7292 3.96734 -2.41247  255 255 255
10.592 2.45124 -5.62258  255 255 255
10.7745 3.06844 8.90663  255 255 255
11.0675 1.66364 7.0431  255 255 255
9.95732 0.252749 2.45887  255 255 255
10.2692 -0.127826 -0.227915  255 255 255
22.5672 1.04044 0.0653089  255 255 255
23.6433 1.75204 4.22121  255 255 255
23.1149 1.19772 5.38431  255 255 255
24.019 1.41182 4.71204  255 255 255
16.0417 12.6757 10.6635  255 255 255
19.0701 7.49771 10.9308  255 255 255
11.6689 11.3839 -9.73951  255 255 255
13.7177 10.193 -9.3031  255 255 255
11.5165 6.76361 9.75503  255 255 255
15.971 6.10338 10.7555  255 255 255
15.971 6.10338 10.7555  255 255 255
11.929 5.85109 -0.299225  255 255 255
11.3223 5.67088 7.55094  255 255 255
11.6539 4.35627 -3.79822  255 255 255
8.84466 4.34518 16.3874  255 255 255
9.83458 2.36886 1.71361  255 255 255
15.8975 2.86153 11.5491  255 255 255
10.9634 1.81146 9.38576  255 255 255
15.8996 2.7599 11.4786  255 255 255
15.5354 0.409844 -13.1124  255 255 255
15.8975 2.43923 10.7854  255 255 255
9.84933 0.24657 3.60898  255 255 255
17.8578 -0.0104759 8.39832  255 255 255
15.9888 6.13376 11.3746  255 255 255
12.2105 5.43005 -4.16906  255 255 255
20.1184 1.7339 5.8631  255 255 255
24.1259 1.21151 4.65983  255 255 255
23.1357 0.273833 5.46206  255 255 255
7.29544 -14.2963 -5.60113  255 255 255
15.8907 6.12702 10.7348  255 255 255
13.3998 4.66225 -14.7727  255 255 255
8.91674 3.29018 15.7663  255 255 255
15.8946 2.56348 10.8818  255 255 255
17.7955 -0.0751717 8.97926  255 255 255
17.5347 21.8515 -6.71458  255 255 255
17.0727 21.9426 -6.42918  255 255 255
9.09462 3.47855 15.2919  255 255 255
9.99531 1.83694 1.25941  255 255 255
10.9967 1.03179 5.90624  255 255 255
17.877 -0.249981 8.78229  255 255 255
8.81177 3.03372 15.6379  255 255 255
10.4964 1.18867 -6.71067  255 255 255
10.7711 0.628384 5.49079  255 255 255
9.91122 0.163405 3.50028  255 255 255
10.4604 0.161599 6.48606  255 255 255
24.0891 1.37046 4.69593  255 255 255
16.8 22.8512 -6.70481  255 255 255
16.8 22.8513 -6.70482  255 255 255
13.8039 0.181512 -14.4427  255 255 255
15.9307 2.55244 11.3991  255 255 255
8.82458 3.61023 15.9977  255 255 255
15.6596 24.4276 -7.45183  255 255 255
10.9782 9.39702 8.32454  255 255 255
10.7681 9.45573 8.30418  255 255 255
11.1123 7.0282 8.58805  255 255 255
9.70265 3.66735 -9.84041  255 255 255
8.67668 3.59979 16.0504  255 255 255
11.1805 2.7027 9.02529  255 255 255
11.7368 2.08298 8.59126  255 255 255
15.568 6.45235 10.4514  255 255 255
10.2535 8.73143 7.19034  255 255 255
12.6175 4.89448 -7.32795  255 255 255
10.7638 1.27799 6.28277  255 255 255
23.3189 1.26938 4.25956  255 255 255
12.3327 10.4187 -8.91927  255 255 255
16.3454 21.4809 -4.82568  255 255 255
12.8439 3.55736 -9.59412  255 255 255
14.5733 26.7023 -4.89394  255 255 255
10.8681 10.8178 -9.418  255 255 255
10.9196 8.36513 9.73285  255 255 255
11.0038 8.24903 10.0575  255 255 255
10.6997 8.07405 13.6013  255 255 255
10.7892 8.1776 11.2696  255 255 255
10.9191 8.09331 11.1189  255 255 255
10.909 8.09954 10.7948  255 255 255
10.8628 7.22383 14.2448  255 255 255
10.722 7.1589 14.2182  255 255 255
11.9865 7.10889 -1.34953  255 255 255
11.9098 6.52945 -0.495131  255 255 255
10.7607 3.67785 10.5078  255 255 255
10.683 1.72457 -7.25365  255 255 255
10.0675 2.2358 2.17295  255 255 255
10.8193 2.27459 10.1171  255 255 255
10.6805 2.28186 10.8491  255 255 255
12.261 -1.13299 -20.3033  255 255 255
10.0945 0.332062 1.06504  255 255 255
16.1742 22.1448 -5.40011  255 255 255
10.8116 9.81949 11.1242  255 255 255
10.885 8.68445 10.9657  255 255 255
10.6731 7.34756 14.7238  255 255 255
12.7443 6.83831 -16.0445  255 255 255
12.3429 6.11914 -7.61861  255 255 255
11.2138 5.66087 8.45967  255 255 255
10.1911 5.29089 14.7106  255 255 255
11.0556 4.68487 9.20725  255 255 255
10.6243 2.95229 -6.08034  255 255 255
