ply
format ascii 1.0
element vertex 1260
property float x
property float y
property float z
property uchar red
property uchar green
property uchar blue
end_header
-16.0758 -14.4072 35.9251  255 255 255
10.1377 55.2786 -17.9945  255 255 255
18.454 53.5625 -81.6625  255 255 255
101.001 58.8141 -97.438  255 255 255
102.164 52.4721 -100.712  255 255 255
-14.4975 10.7508 30.2668  255 255 255
115.633 9.67725 14.6154  255 255 255
-8.93691 5.6349 -30.2624  255 255 255
114.77 3.45736 16.3384  255 255 255
-7.87619 -14.8772 -48.5007  255 255 255
-11.6669 -15.4316 -15.4848  255 255 255
-14.4075 -11.5037 28.3664  255 255 255
73.7961 -14.6373 35.672  255 255 255
115.51 7.22228 18.2641  255 255 255
114.959 5.52481 16.2986  255 255 255
129.146 1.05319 -108.161  255 255 255
129.916 0.867703 -107.958  255 255 255
126.055 -5.9949 -100.01  255 255 255
116.177 -7.23576 -57.8608  255 255 255
-10.8033 -19.7044 -15.6267  255 255 255
3.14132 71.8687 -9.10423  255 255 255
9.4153 72.4019 -10.7339  255 255 255
-11.93 8.15051 29.0787  255 255 255
-15.0964 6.0568 30.8857  255 255 255
-11.0966 5.48978 28.339  255 255 255
95.4617 -7.00345 20.6265  255 255 255
-15.3852 -9.36347 39.2027  255 255 255
74.1628 -18.5386 11.1007  255 255 255
12.143 71.354 -18.4942  255 255 255
95.0614 55.7588 6.55358  255 255 255
95.4915 56.1458 5.99978  255 255 255
-15.3777 7.60675 -21.2052  255 255 255
100.853 6.20615 -10.8925  255 255 255
-14.5689 -9.88363 34.9022  255 255 255
74.9101 -16.6229 29.3452  255 255 255
6.9147 -19.1348 28.974  255 255 255
10.419 59.9473 -34.778  255 255 255
20.4269 4.86969 7.73503  255 255 255
4.8563 -9.6784 -6.51512  255 255 255
-11.5255 80.3822 36.5039  255 255 255
-9.9499 81.5627 37.0398  255 255 255
-21.2251 46.6753 63.6452  255 255 255
-21.1856 46.5839 64.0143  255 255 255
85.2825 70.3748 7.41088  255 255 255
8.66609 76.7874 -13.9592  255 255 255
101.892 62.3002 12.1977  255 255 255
-0.177375 73.584 -15.05  255 255 255
-2.98052 69.2538 -11.5995  255 255 255
93.7561 49.9982 6.35166  255 255 255
-0.279706 21.2654 65.2759  255 255 255
-6.20694 16.864 65.881  255 255 255
0.606387 17.1488 66.0205  255 255 255
-0.790289 17.1514 65.8928  255 255 255
2.6144 16.327 65.504  255 255 255
19.7662 60.5294 -88.6096  255 255 255
0.887128 15.7288 64.6983  255 255 255
-1.17348 14.0142 66.2189  255 255 255
-16.6055 14.9203 56.8609  255 255 255
-16.4064 14.1988 57.8036  255 255 255
-16.4399 14.4428 56.8481  255 255 255
-0.760006 12.6609 63.9697  255 255 255
108.859 46.3813 -94.3732  255 255 255
108.177 45.0482 -94.6499  255 255 255
-2.16052 10.7223 64.2545  255 255 255
-0.672351 9.95627 64.6907  255 255 255
-17.5248 6.47549 67.1996  255 255 255
-9.77178 12.8527 -28.6686  255 255 255
-13.1835 5.74908 32.9789  255 255 255
-15.4604 2.95136 50.4044  255 255 255
-14.9834 3.96086 50.1296  255 255 255
-15.3979 3.59771 51.2918  255 255 255
119.561 7.12089 -38.2736  255 255 255
-0.133561 1.14895 64.1624  255 255 255
107.595 6.44718 -93.3573  255 255 255
115.527 2.56044 12.9394  255 255 255
-12.2649 -2.712 26.7406  255 255 255
-11.0524 -1.96709 -5.36121  255 255 255
-12.6336 -2.11455 19.7684  255 255 255
1.02989 -1.87539 39.2753  255 255 255
0.915781 -1.55275 40.1297  255 255 255
-8.23823 -6.5635 -27.9188  255 255 255
122.932 -8.29129 -63.5108  255 255 255
-15.6028 -3.88189 51.9751  255 255 255
-15.8718 -4.98719 52.1693  255 255 255
98.7608 -6.72344 21.9951  255 255 255
-16.1271 -10.3917 17.7021  255 255 255
-16.4539 -8.93639 52.3078  255 255 255
-15.3873 -12.3757 36.6505  255 255 255
-17.0486 -13.0318 52.5802  255 255 255
73.5474 -13.4959 38.8783  255 255 255
74.5386 -14.4415 39.9934  255 255 255
-16.5224 -13.9709 51.8164  255 255 255
79.1064 -13.8342 43.4549  255 255 255
26.5396 -20.7799 18.855  255 255 255
6.81226 -19.3235 34.5171  255 255 255
78.837 -16.5487 43.9311  255 255 255
-0.345832 -18.8371 57.8585  255 255 255
-0.0391192 -19.0226 68.0425  255 255 255
49.6492 -17.6695 64.9143  255 255 255
23.7021 -166.51 -88.1501  255 255 255
8.71756 94.4033 41.5795  255 255 255
7.15926 89.754 35.5863  255 255 255
7.1287 84.3526 37.7573  255 255 255
0.467844 71.5902 41.9361  255 255 255
102.548 65.8023 12.7371  255 255 255
87.2346 66.8116 3.12941  255 255 255
-1.93959 60.7574 -11.6843  255 255 255
5.40188 52.7246 -15.7161  255 255 255
93.7553 38.9768 7.52473  255 255 255
-15.7017 16.2317 53.4986  255 255 255
26.2437 62.3303 -185.915  255 255 255
-17.3321 10.0077 67.5682  255 255 255
-17.1033 9.30927 69.0988  255 255 255
-18.3894 8.60149 67.5786  255 255 255
-2.36195 8.29712 64.7912  255 255 255
-17.7399 6.81829 68.7952  255 255 255
-17.7283 7.09537 69.3402  255 255 255
115.778 6.22081 15.4239  255 255 255
120.856 4.85421 -45.1996  255 255 255
119.023 3.74371 -8.11319  255 255 255
121.169 4.2805 -10.3034  255 255 255
118.68 0.94169 -17.3107  255 255 255
116.275 1.71602 5.57518  255 255 255
-13.5293 -1.34269 26.4742  255 255 255
-11.2035 -3.00458 1.12727  255 255 255
-11.5058 -5.09694 -6.9652  255 255 255
1.02173 -8.09576 -107.487  255 255 255
-20.916 -8.7658 53.3161  255 255 255
-20.6336 -7.13544 53.8478  255 255 255
-21.5829 -7.53178 52.5115  255 255 255
-17.2926 -9.20528 52.6076  255 255 255
-17.663 -14.5937 10.4451  255 255 255
-17.4391 -14.7291 10.4712  255 255 255
-7.37653 -18.4838 4.81256  255 255 255
-6.62736 -16.7602 6.19876  255 255 255
-15.4647 -14.6369 53.7638  255 255 255
1.18189 -14.7097 55.2651  255 255 255
-14.5399 -16.7983 54.5358  255 255 255
82.2165 -19.7293 40.6839  255 255 255
82.0947 -19.3084 40.5041  255 255 255
1.65458 -17.1995 58.8734  255 255 255
2.4155 -17.0375 59.2369  255 255 255
2.17067 -18.0077 54.9374  255 255 255
95.0491 -18.8373 52.8546  255 255 255
46.6274 -18.6873 57.6633  255 255 255
46.4934 -16.5829 63.9496  255 255 255
28.4738 -18.6421 62.8593  255 255 255
27.7114 -18.7117 64.8038  255 255 255
46.0846 -18.4342 64.7259  255 255 255
9.26542 -20.1256 61.7972  255 255 255
72.8695 -18.5667 67.846  255 255 255
83.6327 -19.1472 67.6063  255 255 255
6.86638 94.3443 37.6421  255 255 255
-12.3536 91.7404 37.5102  255 255 255
-10.5131 89.3566 39.87  255 255 255
8.81281 88.9767 35.4971  255 255 255
84.7564 71.2162 7.07673  255 255 255
86.9627 64.2557 3.40036  255 255 255
0.223047 21.2052 64.5316  255 255 255
101.904 68.9247 -97.0362  255 255 255
-2.03973 17.2597 65.0647  255 255 255
4.7945 56.9596 -88.6045  255 255 255
-18.1541 11.6965 67.9577  255 255 255
2.70748 6.01121 38.7724  255 255 255
-14.0321 12.0273 -28.2726  255 255 255
100.263 8.5789 7.21168  255 255 255
118.644 10.0096 -10.4143  255 255 255
-13.7661 1.54488 31.7162  255 255 255
-11.3894 1.07662 1.50218  255 255 255
117.014 2.5299 3.51163  255 255 255
1.1667 -2.38444 39.9755  255 255 255
76.5596 -15.3785 -42.0438  255 255 255
-17.1309 -10.4026 51.9944  255 255 255
10.1739 -18.6249 23.2825  255 255 255
7.9501 -18.7397 21.8167  255 255 255
82.8065 -17.3755 40.1876  255 255 255
0.426797 -17.5488 60.1452  255 255 255
4.61564 -20.2318 67.3301  255 255 255
12.8526 -17.1168 84.4686  255 255 255
14.5457 -20.8878 100.135  255 255 255
-12.1844 91.2388 42.0796  255 255 255
102.084 61.2561 8.75158  255 255 255
16.4949 68.8713 -20.2532  255 255 255
-1.08169 12.5365 64.9433  255 255 255
-17.9738 11.2294 67.6873  255 255 255
-18.0053 11.8146 68.1594  255 255 255
-4.70673 12.1421 63.7769  255 255 255
-17.273 10.2751 68.5294  255 255 255
115.631 13.4926 9.61112  255 255 255
-13.6883 3.04295 29.6782  255 255 255
103.882 0.379111 36.6597  255 255 255
-12.3935 -3.78383 26.9669  255 255 255
123.69 -9.06414 -73.971  255 255 255
-6.4595 -12.4212 -47.2068  255 255 255
79.0946 -11.0737 21.0268  255 255 255
-12.1165 -12.5928 31.6272  255 255 255
-21.3326 -10.2093 55.0398  255 255 255
-17.0094 -17.0802 13.4973  255 255 255
-21.2092 -11.7852 53.7274  255 255 255
74.2894 -16.0031 39.366  255 255 255
14.3386 -20.3405 26.8328  255 255 255
95.6183 -16.4481 56.523  255 255 255
94.2496 -18.5468 54.293  255 255 255
94.2305 -18.129 55.4279  255 255 255
-0.425807 -17.8097 65.6553  255 255 255
57.3435 -19.098 68.1138  255 255 255
0.777019 -18.1105 82.4228  255 255 255
14.2801 -17.7734 83.4687  255 255 255
9.50543 92.1536 41.0618  255 255 255
88.8754 72.8893 12.8126  255 255 255
84.8639 71.1715 10.832  255 255 255
-3.73723 71.8406 -13.8323  255 255 255
-3.12066 69.3623 -15.6332  255 255 255
-2.87033 68.172 -14.2786  255 255 255
4.9438 68.5126 -17.431  255 255 255
1.24767 60.1791 -17.7909  255 255 255
1.47928 18.7169 64.4171  255 255 255
-3.72971 11.3537 65.2655  255 255 255
-4.10785 11.8687 64.5882  255 255 255
-0.609449 7.10332 35.6178  255 255 255
117.267 10.3651 1.62236  255 255 255
116.267 10.1656 1.8606  255 255 255
-14.8419 4.20218 53.5067  255 255 255
-12.7672 4.04468 -7.12535  255 255 255
-7.80502 2.89575 -43.1902  255 255 255
-14.1972 -2.03175 34.053  255 255 255
-13.1538 -4.76274 30.4173  255 255 255
-8.63391 -4.90186 21.0469  255 255 255
-8.83827 -7.18755 -11.5283  255 255 255
26.4309 -19.0373 19.1357  255 255 255
-21.156 -13.2096 53.4782  255 255 255
-20.8775 -13.7397 53.6368  255 255 255
3.26124 -16.705 55.7503  255 255 255
4.55416 95.1308 41.1491  255 255 255
5.778 95.4382 40.9082  255 255 255
-4.62348 86.9919 41.7024  255 255 255
8.07391 83.3458 38.2549  255 255 255
90.2922 74.1975 13.9913  255 255 255
87.0654 72.5242 10.9747  255 255 255
0.121829 71.9995 -17.8135  255 255 255
90.4918 57.0329 5.53896  255 255 255
-0.57391 22.0455 65.7648  255 255 255
-1.47866 21.8446 64.1856  255 255 255
-18.0431 17.1135 66.5402  255 255 255
0.976974 18.5201 64.7701  255 255 255
-2.99477 16.484 64.3519  255 255 255
-4.68644 17.6117 64.7742  255 255 255
115.316 11.1334 17.9804  255 255 255
3.66879 6.55409 39.3214  255 255 255
-12.2172 1.73545 27.4478  255 255 255
118.344 1.37075 -7.81334  255 255 255
118.574 1.43651 -7.50008  255 255 255
118.98 -0.16166 -11.6297  255 255 255
-21.1541 -5.90663 55.8544  255 255 255
-19.6856 -6.72734 56.5404  255 255 255
-18.2849 -9.04597 52.2125  255 255 255
-18.9772 -9.28787 52.7418  255 255 255
-6.11733 -19.5284 -19.1259  255 255 255
-7.6713 -18.9397 -20.2895  255 255 255
-14.8182 -12.9196 35.2831  255 255 255
-14.3475 -12.7758 34.9865  255 255 255
9.42177 -17.5039 8.13673  255 255 255
77.8736 -13.0836 42.4182  255 255 255
78.2986 -22.8873 -4.24964  255 255 255
-20.9815 -15.9118 54.0467  255 255 255
93.7612 -20.6063 31.5987  255 255 255
93.8069 -19.6601 32.0016  255 255 255
-1.27561 -19.3347 65.5211  255 255 255
53.2965 -17.0795 87.7806  255 255 255
9.13392 89.144 35.8456  255 255 255
86.8356 68.5484 7.08183  255 255 255
89.3562 65.7553 5.82162  255 255 255
-17.7842 17.5331 66.598  255 255 255
115.976 10.2202 18.9332  255 255 255
-20.814 -4.42852 60.1687  255 255 255
105.115 -6.0649 26.7483  255 255 255
11.62 -17.8974 21.0915  255 255 255
10.6371 -17.7415 20.9952  255 255 255
-18.371 6.98194 68.753  255 255 255
119 9.69437 21.1588  255 255 255
-4.17937 -7.5341 -24.2837  255 255 255
6.73332 -19.1983 27.0102  255 255 255
2.1952 -15.5004 56.726  255 255 255
6.90664 94.9092 39.4799  255 255 255
-3.54339 16.3523 64.8013  255 255 255
-4.72892 7.26533 63.7267  255 255 255
113.514 0.493399 18.1624  255 255 255
113.54 1.03205 17.6347  255 255 255
102.443 -3.05767 34.5158  255 255 255
4.98672 -17.6241 32.0568  255 255 255
-21.9335 -9.66335 57.7669  255 255 255
90.0167 -17.6254 55.6668  255 255 255
3.94626 -19.5798 69.7344  255 255 255
111.791 12.0932 23.3301  255 255 255
-8.82195 -13.0301 59.3538  255 255 255
26.5892 -13.8073 14.173  255 255 255
-6.03528 4.37893 25.205  255 255 255
4.81187 -17.6038 46.5342  255 255 255
-0.979402 88.1458 41.7647  255 255 255
5.57127 -11.1716 37.0215  255 255 255
85.0917 66.2001 6.32398  255 255 255
83.4833 63.9402 4.2778  255 255 255
3.02874 74.0528 -11.0923  255 255 255
0.529837 70.86 -12.6215  255 255 255
18.4261 65.5958 -7.10661  255 255 255
2.17624 64.6066 -9.98139  255 255 255
9.51885 62.9106 -13.6924  255 255 255
9.09897 63.8049 -12.2968  255 255 255
-3.00776 62.6858 -13.0279  255 255 255
100.127 59.8145 -98.9709  255 255 255
-14.912 16.5212 -28.7225  255 255 255
44.3027 1.91859 69.9162  255 255 255
-14.1857 15.4223 -27.7203  255 255 255
-12.6054 15.1369 -27.8783  255 255 255
97.6343 8.98008 6.02294  255 255 255
-6.08051 9.7841 -30.1756  255 255 255
-10.6027 7.55241 -22.4454  255 255 255
-9.62393 6.90419 -29.706  255 255 255
116.176 3.4164 -1.20088  255 255 255
89.59 2.58641 19.6036  255 255 255
-12.9736 -4.51534 2.40405  255 255 255
-12.5502 -6.4386 -11.0983  255 255 255
-13.6584 -5.33541 25.8225  255 255 255
-17.793 -11.2082 6.59565  255 255 255
-18.3633 -12.5021 6.51935  255 255 255
-9.96994 -17.2829 -9.48993  255 255 255
-9.06176 -22.2509 -19.8409  255 255 255
27.6359 -15.4825 14.9562  255 255 255
74.2846 -17.1142 16.1739  255 255 255
73.3757 -16.9678 16.4097  255 255 255
17.0002 -16.4233 25.5221  255 255 255
72.8187 -13.9137 38.2231  255 255 255
75.5646 -14.8735 40.2174  255 255 255
75.4157 -15.617 41.035  255 255 255
72.818 -15.3972 38.2848  255 255 255
78.8027 -15.4824 42.9479  255 255 255
78.6208 -14.7423 44.0752  255 255 255
90.3229 70.8413 -0.943447  255 255 255
-1.78603 73.4939 -11.6652  255 255 255
97.9608 53.497 8.4004  255 255 255
4.26273 70.8039 -81.8003  255 255 255
19.1826 62.3717 -84.1042  255 255 255
14.5474 68.2138 -180.626  255 255 255
21.5495 48.4009 -181.235  255 255 255
-7.61688 15.0948 -28.9956  255 255 255
-13.6414 10.5917 -28.4733  255 255 255
116.83 6.95532 -10.3056  255 255 255
118.123 4.56409 -6.48277  255 255 255
90.199 1.36416 37.316  255 255 255
-9.54944 2.59852 -12.4745  255 255 255
117.875 2.73766 -15.3238  255 255 255
120.486 0.248721 -38.335  255 255 255
-13.5512 -0.676011 28.562  255 255 255
2.65276 -2.55639 39.5694  255 255 255
-6.65474 -5.63239 -7.89666  255 255 255
81.9994 -12.347 18.3497  255 255 255
14.6679 -16.0313 1.11319  255 255 255
45.2342 -5.51098 63.2602  255 255 255
-11.7626 -19.2928 -5.87983  255 255 255
20.8125 -15.6092 15.7294  255 255 255
74.9066 -14.4226 19.6728  255 255 255
75.1532 -14.7013 19.1858  255 255 255
74.3704 -11.8064 39.0159  255 255 255
74.5272 -11.849 39.2147  255 255 255
-17.6942 -18.7577 6.19842  255 255 255
76.9758 -16.4886 23.0132  255 255 255
73.1249 -14.3301 38.5586  255 255 255
28.2977 -20.0533 17.1629  255 255 255
76.3744 -14.8388 42.5081  255 255 255
72.1709 -15.8565 37.6038  255 255 255
48.7618 -19.9457 27.0017  255 255 255
6.70267 54.6443 -10.7878  255 255 255
21.0119 60.4994 -183.87  255 255 255
12.7252 50.5918 -181.719  255 255 255
127.09 13.614 1.55432  255 255 255
-14.1158 14.6863 -28.7534  255 255 255
-11.2231 2.01556 -3.33105  255 255 255
-11.5811 1.98478 -3.22547  255 255 255
118.06 1.11778 -3.84421  255 255 255
-12.8548 -1.36496 27.8062  255 255 255
4.14379 -4.13376 -110.052  255 255 255
-12.7463 -2.5881 29.6488  255 255 255
-16.8032 -13.6333 5.83932  255 255 255
74.881 -11.9861 37.2509  255 255 255
73.773 -13.3244 37.9916  255 255 255
78.2025 -20.9607 14.7988  255 255 255
88.5235 64.5481 1.23884  255 255 255
-1.10391 67.9231 -13.4531  255 255 255
-0.879105 66.8466 -14.4968  255 255 255
93.8503 44.8951 6.80154  255 255 255
18.711 68.6605 -84.9993  255 255 255
97.8107 9.13979 6.33054  255 255 255
122.381 6.90864 -89.3853  255 255 255
29.7215 -14.0477 -58.1072  255 255 255
95.928 -6.67619 20.5274  255 255 255
13.4926 -15.2684 25.773  255 255 255
3.03426 66.4316 -13.9303  255 255 255
-10.9221 -2.80392 9.40541  255 255 255
80.6433 -11.7663 16.1111  255 255 255
-12.23 -18.8145 -0.421592  255 255 255
-11.346 -21.0046 -4.79214  255 255 255
-11.9243 -20.0209 -4.01281  255 255 255
9.15795 71.9121 -7.88033  255 255 255
-1.17172 69.8216 -14.3733  255 255 255
98.8322 -5.43239 6.63372  255 255 255
99.7598 -4.75482 7.46059  255 255 255
-7.26305 -19.1606 -17.1626  255 255 255
-11.3431 -18.7002 -8.10023  255 255 255
31.2557 -19.9543 -3.75055  255 255 255
13.8093 -18.3759 27.5138  255 255 255
-2.11509 62.4845 -17.095  255 255 255
115.324 7.93724 2.37208  255 255 255
116.542 7.97894 1.25151  255 255 255
118.852 8.65086 -5.33086  255 255 255
116.644 11.1034 -105.693  255 255 255
-9.21172 -8.00935 -10.8466  255 255 255
-14.9306 -16.7065 1.22097  255 255 255
89.8301 59.7352 3.78605  255 255 255
-11.0996 9.06447 -29.5575  255 255 255
83.1677 58.6261 6.49777  255 255 255
-13.7186 -10.2176 -2.29062  255 255 255
84.3293 78.1347 -2.63809  255 255 255
19.9636 71.8411 -79.9357  255 255 255
235.458 40.3784 -134.515  255 255 255
115.316 7.72602 23.2632  255 255 255
-8.22423 12.6069 -25.6425  255 255 255
-11.0491 8.47161 -24.6796  255 255 255
124.017 6.80485 -88.1484  255 255 255
125.442 -0.794555 -81.5757  255 255 255
29.0615 -16.811 -4.38949  255 255 255
10.0387 56.7607 -20.3488  255 255 255
2.53574 11.517 65.5037  255 255 255
-5.10299 15.9762 -25.3089  255 255 255
117.144 11.6993 3.22527  255 255 255
0.423119 -1.68167 40.5158  255 255 255
75.7212 -11.905 37.802  255 255 255
11.477 -18.4553 27.4521  255 255 255
4.6973 -19.3799 65.3606  255 255 255
99.2206 55.2689 9.15248  255 255 255
6.5322 54.9041 -86.2096  255 255 255
99.6345 8.96243 7.64764  255 255 255
122.614 0.381144 -67.7925  255 255 255
-9.27003 -2.36103 -6.51059  255 255 255
-17.9325 -8.35725 51.5608  255 255 255
94.4569 49.3084 9.22378  255 255 255
-3.72383 13.5425 65.0666  255 255 255
25.5639 -20.3695 18.4787  255 255 255
4.75179 -20.9302 46.6801  255 255 255
0.644456 -18.8698 58.2401  255 255 255
119.286 9.52134 -48.4602  255 255 255
22.6109 -16.8285 15.5906  255 255 255
37.0831 -16.4636 84.0024  255 255 255
99.2156 7.89531 5.16806  255 255 255
4.67066 65.8282 -76.4754  255 255 255
-6.92335 -18.421 -20.2251  255 255 255
-2.11458 84.5547 28.3907  255 255 255
91.6062 71.9541 17.6537  255 255 255
99.4365 68.8372 17.4887  255 255 255
101.43 65.7702 17.1249  255 255 255
100.012 65.1443 18.3518  255 255 255
106.982 69.426 -90.7294  255 255 255
11.8055 48.8287 -85.4235  255 255 255
105.757 45.3991 -96.0528  255 255 255
11.5958 56.0852 -178.7  255 255 255
-14.7384 13.9024 -28.577  255 255 255
115.313 31.6323 -244.104  255 255 255
-13.0802 7.01782 -28.7529  255 255 255
125.051 8.65105 -74.3819  255 255 255
124.948 7.2455 -82.0156  255 255 255
123.037 3.20837 -63.6497  255 255 255
7.80636 -2.21791 -17.0038  255 255 255
124.174 -5.66854 -89.8311  255 255 255
109.621 -9.90708 -95.092  255 255 255
29.8546 -14.4091 -28.0222  255 255 255
29.186 -14.9085 -21.4275  255 255 255
35.3611 -14.5743 -12.2933  255 255 255
23.1309 -15.1019 0.451496  255 255 255
76.6131 -19.6883 -39.0451  255 255 255
27.1816 -17.1565 -1.00914  255 255 255
77.712 -25.2971 -45.4419  255 255 255
29.1293 -19.3352 -3.06519  255 255 255
12.5197 -18.1356 28.2825  255 255 255
-12.2416 84.7816 35.4232  255 255 255
4.34026 57.8487 -85.9389  255 255 255
26.8826 66.1544 -180.759  255 255 255
149.232 23.6243 -24.3582  255 255 255
103.973 46.322 -186.163  255 255 255
103.853 46.8266 -186.517  255 255 255
-8.87508 4.63568 -28.3569  255 255 255
108.332 5.663 -97.1575  255 255 255
109.352 4.5069 -97.5047  255 255 255
15.178 -26.1459 -198.806  255 255 255
35.1654 -19.0076 -51.1868  255 255 255
35.7634 -16.8742 -36.6701  255 255 255
35.584 -17.6481 -10.0972  255 255 255
7.43822 -17.878 32.1345  255 255 255
6.53116 93.7809 32.6945  255 255 255
-4.05255 80.6953 33.5887  255 255 255
-2.96455 81.2291 34.1785  255 255 255
14.9961 46.5207 -284.642  255 255 255
120.683 11.1033 -38.0332  255 255 255
91.3681 -86.4633 -92.4498  255 255 255
5.33524 90.095 32.2  255 255 255
108.087 44.6482 -199.432  255 255 255
55.7166 -19.2119 72.7615  255 255 255
7.98209 98.7454 32.7572  255 255 255
-12.0355 89.7659 34.7482  255 255 255
-1.26263 88.1885 28.4871  255 255 255
101.039 72.188 13.2319  255 255 255
96.0744 28.1774 6.69093  255 255 255
-5.93738 1.4709 -39.3169  255 255 255
-1.54216 74.3157 37.2889  255 255 255
-2.93154 84.4882 29.0105  255 255 255
7.62117 22.9202 65.1714  255 255 255
-15.5565 4.10588 43.9205  255 255 255
106.958 5.02113 -4.92479  255 255 255
-0.384831 -6.68404 -108.164  255 255 255
0.0598387 -6.88201 -29.6478  255 255 255
0.781292 -7.226 -29.679  255 255 255
36.7263 -17.345 -15.8757  255 255 255
-10.4349 92.8054 34.5097  255 255 255
-11.9456 86.4526 36.471  255 255 255
-12.1624 86.3211 33.3849  255 255 255
-11.3314 87.3814 34.1747  255 255 255
-7.95588 83.7583 34.5812  255 255 255
90.005 72.7187 13.7871  255 255 255
103.124 45.037 -198.789  255 255 255
111.372 7.2291 -9.01187  255 255 255
23.9932 0.233682 -233.097  255 255 255
6.37226 95.825 30.3189  255 255 255
86.4563 74.7459 6.82142  255 255 255
-3.10625 86.5137 30.3081  255 255 255
26.552 49.3515 -283.503  255 255 255
-0.547172 20.6278 -25.9425  255 255 255
-7.15191 99.4987 43.7036  255 255 255
7.48098 93.0578 41.16  255 255 255
-13.8043 91.1076 39.0505  255 255 255
-2.85331 76 40.6331  255 255 255
-3.2641 75.5524 40.7531  255 255 255
-3.12892 74.5779 40.1893  255 255 255
-3.50156 73.3614 41.7146  255 255 255
10.6274 76.6679 -13.103  255 255 255
119.559 52.7755 -179.339  255 255 255
-12.0452 20.2491 -28.9193  255 255 255
152.82 6.35979 -77.378  255 255 255
95.8318 -5.98161 8.46267  255 255 255
6.78591 95.5451 41.8217  255 255 255
7.27573 94.4769 40.7312  255 255 255
-12.2753 91.1023 37.9715  255 255 255
0.378813 22.1445 64.9814  255 255 255
106.9 68.3101 -87.5154  255 255 255
-16.4387 4.96938 58.5905  255 255 255
117.704 1.13336 -14.2074  255 255 255
78.6947 -14.0627 19.2574  255 255 255
21.4994 -15.7463 18.4118  255 255 255
92.9542 -19.1875 54.1903  255 255 255
-6.08911 98.8024 43.1981  255 255 255
-3.87678 100.558 41.3421  255 255 255
-3.11307 100.576 42.2944  255 255 255
-0.303733 88.6952 36.3681  255 255 255
90.8691 60.468 3.02223  255 255 255
13.4543 64.6499 -84.0451  255 255 255
12.5374 63.781 -84.0715  255 255 255
115.742 11.6869 -9.90438  255 255 255
-18.9978 -12.3073 10.9208  255 255 255
-6.53146 -18.9501 -41.7614  255 255 255
126.196 -23.3685 -49.1521  255 255 255
76.4045 -21.5985 -11.6904  255 255 255
74.5329 -19.1961 15.5587  255 255 255
77.4653 -21.1654 14.8123  255 255 255
57.9894 -18.24 86.734  255 255 255
82.7624 5.31276 51.6607  255 255 255
118.545 0.932162 -21.732  255 255 255
-6.26489 -12.5698 -47.3413  255 255 255
-17.986 -17.7148 7.49945  255 255 255
93.6924 -18.8884 54.2002  255 255 255
-0.855229 -17.9244 65.9929  255 255 255
53.1096 -16.8236 88.9747  255 255 255
-4.83805 98.5229 43.4079  255 255 255
-1.64352 97.8838 42.6403  255 255 255
7.57919 95.0764 41.6413  255 255 255
8.91987 94.0061 36.1063  255 255 255
-17.7515 8.61613 69.2581  255 255 255
123.153 38.4393 -202.262  255 255 255
117.937 8.0528 -21.196  255 255 255
119.211 7.36914 -17.5749  255 255 255
118.485 8.00018 -18.0321  255 255 255
117.669 -1.89627 -15.4402  255 255 255
-18.5468 -10.3431 9.73921  255 255 255
-7.74245 -16.5393 -48.848  255 255 255
117.468 1.39706 -6.4659  255 255 255
118.021 0.359671 2.19471  255 255 255
116.62 0.627686 2.67724  255 255 255
6.47679 -18.9554 31.9009  255 255 255
-6.30609 96.6466 44.5828  255 255 255
7.84011 86.7292 34.9682  255 255 255
1.03573 -17.8461 56.9497  255 255 255
2.53125 96.8501 45.147  255 255 255
2.30077 2.00785 -20.8408  255 255 255
-9.76606 -3.4256 -7.96634  255 255 255
-6.33185 -18.6593 -31.253  255 255 255
10.2051 93.4686 39.801  255 255 255
-9.94158 -8.15803 8.06826  255 255 255
5.74264 94.6265 40.6185  255 255 255
92.4225 78.3853 10.6786  255 255 255
100.463 75.6042 13.292  255 255 255
89.977 76.3661 10.5595  255 255 255
102.45 71.4275 13.3871  255 255 255
102.43 71.587 13.6904  255 255 255
102.147 69.8913 12.6683  255 255 255
19.1041 71.3044 -95.3909  255 255 255
13.1288 66.5146 -180.076  255 255 255
24.4111 65.4018 -181.164  255 255 255
7.10845 60.0964 -181.384  255 255 255
26.6134 57.5005 -186.558  255 255 255
-11.631 11.7595 -28.2244  255 255 255
-11.7658 8.8537 -28.7131  255 255 255
-11.8203 8.79367 -28.0333  255 255 255
119.926 7.80823 -40.6722  255 255 255
122.051 9.72273 -74.1975  255 255 255
-5.32116 2.70262 -37.4688  255 255 255
117.906 7.66732 -116.291  255 255 255
122.522 3.33845 -63.5219  255 255 255
-9.73578 0.204335 -19.623  255 255 255
120.62 -3.60109 -44.6505  255 255 255
116.958 -4.6743 -35.1536  255 255 255
-3.81068 -12.9288 -86.8319  255 255 255
-4.63396 -13.876 -86.7095  255 255 255
-7.44571 -12.4639 -45.5441  255 255 255
26.8048 -13.6731 -3.8183  255 255 255
26.1177 -13.3372 -0.875777  255 255 255
74.6391 -17.8944 -21.2941  255 255 255
50.9419 -19.2936 13.2718  255 255 255
27.329 -20.802 18.4671  255 255 255
50.2741 -18.9635 64.5281  255 255 255
102.39 73.2613 14.0577  255 255 255
87.3374 76.2189 9.72692  255 255 255
102.745 70.5204 14.1186  255 255 255
102.869 68.2714 12.7501  255 255 255
85.9894 66.4005 6.96545  255 255 255
26.0613 60.444 -183.724  255 255 255
117.992 49.0896 -299.869  255 255 255
119.902 40.3873 -245.093  255 255 255
119.598 9.30241 -28.564  255 255 255
121.395 9.93219 -41.898  255 255 255
-10.4456 4.46569 -10.6432  255 255 255
-7.86083 -0.0999309 -43.0463  255 255 255
64.6773 -4.99805 35.4324  255 255 255
-12.9159 -12.7508 -22.4488  255 255 255
29.9091 -13.2098 -23.211  255 255 255
78.9019 -19.1358 2.55287  255 255 255
77.7933 -19.0479 2.93381  255 255 255
15.5444 -15.9232 25.3855  255 255 255
52.267 -19.0668 66.1294  255 255 255
53.0191 -18.4179 66.7928  255 255 255
184.171 -248.619 -138.414  255 255 255
97.8685 74.7114 12.8461  255 255 255
89.2895 74.3271 8.87634  255 255 255
88.8288 74.6027 9.45759  255 255 255
0.993523 66.4054 -81.9543  255 255 255
115.661 70.0819 -94.2403  255 255 255
22.8364 65.1586 -177.271  255 255 255
19.9894 60.4618 -185.388  255 255 255
-6.1307 -8.34729 -37.4289  255 255 255
-5.25929 -12.6963 -85.466  255 255 255
100.014 67.6847 14.2547  255 255 255
13.7379 71.7721 -80.453  255 255 255
19.7438 67.7931 -84.0624  255 255 255
6.15193 40.2996 -17.064  255 255 255
119.588 9.20867 -30.4279  255 255 255
120.616 6.55027 -37.8694  255 255 255
122.569 2.28555 -44.7619  255 255 255
121.514 2.70773 -44.4785  255 255 255
-15.7535 -11.7711 -1.20787  255 255 255
1.59503 69.894 -83.7383  255 255 255
18.8153 65.3786 -85.6856  255 255 255
-16.5421 13.609 -30.0942  255 255 255
20.9511 -13.8606 -10.6576  255 255 255
87.1697 69.0038 5.54113  255 255 255
33.3046 -17.6062 -6.73806  255 255 255
103.113 64.0792 11.3794  255 255 255
123.705 -2.21116 -79.5491  255 255 255
122.835 -3.8048 -79.2793  255 255 255
117.077 -6.53117 -38.0529  255 255 255
52.4535 -18.7866 66.0115  255 255 255
52.943 -19.2096 65.7689  255 255 255
3.08713 -3.80217 -65.8646  255 255 255
10.6126 37.8814 -170.131  255 255 255
123.591 -0.40276 -76.7729  255 255 255
-4.92272 -19.4002 -42.5928  255 255 255
110.579 -27.8252 -36.4057  255 255 255
5.16513 -18.6812 71.0388  255 255 255
7.24759 94.8467 39.8787  255 255 255
115.005 6.41264 22.4942  255 255 255
22.2713 -16.0479 23.0796  255 255 255
79.1982 -16.8139 43.8521  255 255 255
103.411 68.8886 -91.9937  255 255 255
20.1872 -19.7782 14.2447  255 255 255
122.571 6.23701 -90.017  255 255 255
122.307 6.65001 -88.1286  255 255 255
26.6316 48.4122 -280.88  255 255 255
99.7488 -0.376285 6.48304  255 255 255
105.546 61.9882 -97.4343  255 255 255
118.155 56.2844 -97.6572  255 255 255
-10.7053 19.5173 -28.7534  255 255 255
-10.6813 19.4474 -28.153  255 255 255
-13.4748 18.5741 -28.4533  255 255 255
-12.2617 18.2809 -28.2524  255 255 255
-13.3891 15.955 -27.9177  255 255 255
-15.4532 16.4518 -29.309  255 255 255
-7.35619 14.301 -28.5365  255 255 255
-6.2361 13.0353 -28.6839  255 255 255
-9.11568 9.45125 -29.856  255 255 255
118.07 9.86158 -28.6787  255 255 255
-10.6948 8.25973 -30.1351  255 255 255
-10.5247 8.14787 -28.6919  255 255 255
119.593 10.0733 -32.0221  255 255 255
119.711 10.1316 -31.9762  255 255 255
-10.5024 7.47913 -30.5498  255 255 255
121.904 7.73456 -61.9556  255 255 255
-10.541 2.82863 -5.60243  255 255 255
121.946 5.90149 -47.8999  255 255 255
119.7 4.76005 -41.9805  255 255 255
-8.09645 1.89374 -21.3441  255 255 255
-9.62428 1.13834 -23.2786  255 255 255
-10.7317 -0.499633 -15.1107  255 255 255
-8.4714 -0.769125 -15.5706  255 255 255
-9.43319 -0.807917 -14.5615  255 255 255
2.49777 -1.46233 -38.0947  255 255 255
124.386 0.613355 -85.0117  255 255 255
123.584 -0.278561 -84.0489  255 255 255
120.425 -2.65466 -39.2973  255 255 255
-4.20696 -7.02793 -68.1676  255 255 255
-5.00855 -7.30266 -67.2491  255 255 255
-3.964 -7.52533 -71.4724  255 255 255
111.624 -6.28618 -18.364  255 255 255
80.4589 -15.3027 -35.0411  255 255 255
81.0689 -15.663 -35.9652  255 255 255
66.6605 -10.407 19.1509  255 255 255
78.7576 -18.2182 -34.9099  255 255 255
77.0499 -16.9748 -17.6361  255 255 255
-7.28464 -18.4169 -21.0179  255 255 255
-6.82356 -17.4327 -20.0944  255 255 255
76.2044 -16.9147 -18.5475  255 255 255
28.0801 -18.0615 -1.16283  255 255 255
74.1299 -15.2447 17.2012  255 255 255
53.4974 -21.585 -10.2902  255 255 255
-17.395 -19.5624 4.5872  255 255 255
14.8772 -15.1585 26.0668  255 255 255
16.4888 -15.134 26.6191  255 255 255
26.2334 -18.5948 19.5977  255 255 255
50.3633 -20.9803 22.1434  255 255 255
11.7663 59.3457 -21.0681  255 255 255
10.8446 57.1086 -18.7356  255 255 255
114.166 62.8533 -89.6915  255 255 255
116.435 64.0946 -93.6126  255 255 255
116.04 62.4354 -91.833  255 255 255
120.29 9.44581 -24.8349  255 255 255
10.4682 -6.31192 -87.2804  255 255 255
5.56272 -14.9597 -5.3234  255 255 255
17.605 -15.941 24.0637  255 255 255
8.4432 -19.2974 26.2775  255 255 255
52.1289 -21.9903 13.4477  255 255 255
80.566 -21.1243 21.3739  255 255 255
19.5795 64.5665 -89.2651  255 255 255
-4.20032 -3.58105 -70.3704  255 255 255
26.4613 -15.7383 5.8355  255 255 255
37.3386 -22.3063 -25.1941  255 255 255
116.046 61.2609 -96.1739  255 255 255
-10.9601 0.615899 0.0939986  255 255 255
117.877 -0.511589 -9.76285  255 255 255
-11.2378 -15.3568 -12.4206  255 255 255
-10.6752 3.07975 -0.988299  255 255 255
-10.9802 0.927486 1.76308  255 255 255
-7.00343 -3.66761 -39.3524  255 255 255
-18.3543 -10.5129 6.63328  255 255 255
-17.6908 -11.347 6.71444  255 255 255
85.6726 -16.6625 -18.0408  255 255 255
-10.9427 6.63623 -29.1537  255 255 255
119.263 6.56821 -30.6707  255 255 255
-4.78723 1.57841 -34.0034  255 255 255
25.6528 -15.4898 21.148  255 255 255
25.1295 -15.0701 20.6263  255 255 255
-10.5617 -21.9418 -5.99513  255 255 255
18.2213 54.3231 -83.1481  255 255 255
120 -0.223827 -32.2332  255 255 255
5.07284 -10.8607 -100.891  255 255 255
16.1381 -14.2878 1.83425  255 255 255
-5.22221 1.40477 -30.8445  255 255 255
9.97803 1.68216 -14.926  255 255 255
19.9305 -15.6635 19.3163  255 255 255
7.27012 -18.3467 29.5177  255 255 255
10.5108 62.4923 -82.8438  255 255 255
97.6316 68.1908 13.6023  255 255 255
103.818 63.2686 7.79781  255 255 255
103.57 64.0332 8.28145  255 255 255
91.51 22.3317 67.2338  255 255 255
94.2688 15.8852 67.9525  255 255 255
13.1007 65.548 -176.825  255 255 255
-18.3389 11.7261 76.1398  255 255 255
-15.7111 5.485 49.4433  255 255 255
-1.62099 2.4292 88.046  255 255 255
-1.60541 -11.8515 64.6455  255 255 255
-14.2847 -17.1387 53.3984  255 255 255
6.51035 -18.1044 85.8285  255 255 255
1.90821 93.6819 46.4766  255 255 255
7.69366 93.3067 36.7539  255 255 255
99.5892 63.215 17.5256  255 255 255
6.95624 76.487 -12.5571  255 255 255
90.0924 64.8173 1.13011  255 255 255
0.470399 64.9328 -16.7199  255 255 255
94.1138 16.618 67.6114  255 255 255
-17.4397 11.8794 75.247  255 255 255
-18.5409 12.3741 69.463  255 255 255
-18.152 10.2136 75.8269  255 255 255
-18.3763 11.1421 75.2449  255 255 255
-18.3106 10.8717 74.8185  255 255 255
-17.0673 11.4794 70.6042  255 255 255
-18.1958 10.9396 70.6712  255 255 255
-17.8461 9.41148 74.6312  255 255 255
-17.8531 10.8957 75.8491  255 255 255
-17.6081 10.2172 69.9638  255 255 255
-18.5185 10.8387 69.856  255 255 255
-19.871 9.4377 76.4701  255 255 255
-17.1785 10.3831 70.029  255 255 255
-18.0157 8.56382 72.1963  255 255 255
-18.3285 7.32508 75.9511  255 255 255
-18.8034 9.14999 71.7619  255 255 255
-17.9407 8.50951 74.24  255 255 255
-17.937 9.47715 67.9275  255 255 255
-17.3639 8.5235 69.7981  255 255 255
-18.8322 8.07356 70.755  255 255 255
-18.2648 8.50643 69.9853  255 255 255
-17.7612 7.54497 73.196  255 255 255
-17.5474 7.36278 74.4584  255 255 255
-18.2273 7.2201 74.8503  255 255 255
-17.0913 7.36499 75.0999  255 255 255
-17.9408 7.43614 69.4046  255 255 255
-17.1273 6.27094 70.2599  255 255 255
-16.0045 4.54969 49.2256  255 255 255
115.421 6.27489 16.9607  255 255 255
-17.1706 -8.74832 15.4734  255 255 255
33.9701 -15.7791 -8.39661  255 255 255
10.1317 -20.3056 33.5714  255 255 255
0.164143 -17.3185 66.9211  255 255 255
-2.70307 -15.6765 88.7677  255 255 255
4.82873 -17.9945 84.2121  255 255 255
-5.57978 80.429 40.3429  255 255 255
4.25091 71.2483 -7.97207  255 255 255
87.0844 64.2957 5.00086  255 255 255
1.32026 60.8375 -11.1936  255 255 255
-18.814 12.6792 74.2513  255 255 255
96.304 13.9487 68.2996  255 255 255
-18.1572 13.0903 73.2161  255 255 255
-18.3143 12.3562 76.5972  255 255 255
93.6754 14.0424 67.8548  255 255 255
-18.6751 12.8519 73.0014  255 255 255
-18.8523 10.996 75.6105  255 255 255
-18.2209 12.6875 71.9775  255 255 255
-17.786 9.60266 74.3034  255 255 255
-18.7436 8.78878 71.7364  255 255 255
-17.9724 9.04515 68.8012  255 255 255
-17.8029 9.15271 70.1776  255 255 255
-17.5731 6.88498 70.4981  255 255 255
-16.5052 6.24503 70.0484  255 255 255
97.7162 8.17682 68.3916  255 255 255
95.721 7.07942 67.8612  255 255 255
96.1717 4.55683 68.4389  255 255 255
-15.4465 3.44936 53.9977  255 255 255
-15.9848 4.16753 53.8438  255 255 255
-3.30201 2.61702 88.8377  255 255 255
119.001 3.32216 -23.3602  255 255 255
-12.5014 -1.49239 17.3229  255 255 255
-17.4419 -10.632 7.59423  255 255 255
-18.7657 -11.3567 7.40496  255 255 255
-18.8027 -11.6347 10.2567  255 255 255
56.1622 -17.7047 75.2979  255 255 255
0.326685 98.0995 44.0859  255 255 255
-1.4623 97.4869 42.7067  255 255 255
-8.73751 79.3728 42.419  255 255 255
-16.7437 17.0283 65.6136  255 255 255
95.6193 13.5025 68.1432  255 255 255
-17.5796 12.4397 72.5067  255 255 255
-17.5589 11.1607 72.7032  255 255 255
-4.55891 11.0514 64.2137  255 255 255
-4.13321 12.0868 64.6466  255 255 255
-16.7081 9.65944 72.8584  255 255 255
-18.165 8.77302 70.4956  255 255 255
92.3022 6.05745 67.8011  255 255 255
-18.8471 -14.2036 6.72659  255 255 255
95.1793 -19.1574 61.566  255 255 255
88.1644 66.2017 4.83417  255 255 255
-3.6156 70.8586 -15.5894  255 255 255
94.1884 20.1772 67.7375  255 255 255
93.9584 17.5926 68.8828  255 255 255
-18.4984 9.3942 74.6316  255 255 255
-18.0811 10.9184 69.5213  255 255 255
-17.5383 10.7227 69.2188  255 255 255
-18.2602 10.2749 72.7221  255 255 255
94.0079 3.8744 67.6987  255 255 255
95.2617 4.25897 67.8515  255 255 255
113.134 3.40179 19.3248  255 255 255
92.2129 -19.1989 54.5927  255 255 255
-5.97784 96.3839 44.8335  255 255 255
-6.83351 90.6364 33.3521  255 255 255
94.7324 67.5911 6.55298  255 255 255
87.5678 57.6344 7.25875  255 255 255
94.563 21.8697 68.7502  255 255 255
94.1517 20.8857 67.9894  255 255 255
92.3811 15.4201 68.1005  255 255 255
92.8522 14.4596 67.7777  255 255 255
96.4332 10.6705 68.4117  255 255 255
93.6551 10.3014 68.0189  255 255 255
91.2733 4.46576 69.306  255 255 255
96.5485 4.41793 67.5746  255 255 255
95.9321 -17.7443 62.1924  255 255 255
4.64313 -18.5424 83.0798  255 255 255
-1.42632 -17.4667 88.2717  255 255 255
-2.20914 -16.8945 90.0217  255 255 255
-6.24214 79.5228 38.5549  255 255 255
88.6931 65.4755 8.07653  255 255 255
91.2974 17.5205 67.5768  255 255 255
90.3205 14.839 67.5252  255 255 255
-18.3936 9.20452 76.1826  255 255 255
-18.5094 7.52419 75.7657  255 255 255
-17.0903 7.81643 76.5908  255 255 255
-17.9823 8.06235 71.8095  255 255 255
-3.06501 98.3581 44.2476  255 255 255
9.82555 91.3606 40.6424  255 255 255
-18.4643 11.2252 73.8395  255 255 255
90.3218 11.7592 67.7574  255 255 255
-17.2475 -14.6676 0.559497  255 255 255
-9.56981 82.3787 39.5564  255 255 255
100.982 63.5879 8.9497  255 255 255
-6.8815 14.6984 63.5513  255 255 255
96.2467 -18.5062 62.6277  255 255 255
-1.16522 77.8259 37.3344  255 255 255
-1.98495 78.6126 37.9004  255 255 255
102.29 71.7225 14.2707  255 255 255
-12.8167 -14.9459 52.9527  255 255 255
5.35356 98.569 41.4706  255 255 255
-17.6692 5.63015 62.4962  255 255 255
90.216 5.16521 63.5382  255 255 255
-9.04904 19.0859 65.8193  255 255 255
-4.62016 19.6341 -28.2507  255 255 255
-6.2297 18.4142 -27.3568  255 255 255
-6.98657 14.4756 -28.2862  255 255 255
-10.6008 13.9902 -28.7989  255 255 255
-8.89418 10.9888 -30.179  255 255 255
-11.488 11.1476 -30.0552  255 255 255
-15.5747 9.28098 -29.7183  255 255 255
-13.4289 7.43263 -29.3332  255 255 255
-12.3335 7.58448 -29.6833  255 255 255
-8.06344 1.45376 -29.0931  255 255 255
-10.4836 0.173612 -13.3289  255 255 255
-9.45956 -0.0802453 -17.6631  255 255 255
-14.8986 -12.4635 -41.1938  255 255 255
-13.6575 -13.9706 -40.7017  255 255 255
-8.49193 -17.5769 -20.7057  255 255 255
6.01178 -16.1785 -5.17363  255 255 255
26.4618 -14.3694 18.2167  255 255 255
27.6239 -14.7595 19.0479  255 255 255
-11.6864 8.78573 -29.2917  255 255 255
-10.8762 8.98126 -29.5328  255 255 255
123.08 26.1281 -223.404  255 255 255
-9.80644 1.95748 -3.68436  255 255 255
-10.0578 1.88537 -14.4908  255 255 255
-11.814 0.89245 -4.7801  255 255 255
-11.3752 -0.674049 -3.71888  255 255 255
-9.84856 0.772655 -16.5182  255 255 255
-9.09411 -6.0442 -8.86156  255 255 255
7.66937 -17.5023 -6.01001  255 255 255
81.5885 -17.4723 -0.165124  255 255 255
13.0078 -18.2961 -3.33026  255 255 255
28.1797 -20.2799 -1.41257  255 255 255
-10.9314 5.51658 -7.47272  255 255 255
-12.5727 7.83194 -28.9931  255 255 255
28.6493 -19.8906 -2.85009  255 255 255
29.0218 -21.4103 1.63399  255 255 255
12.6789 55.1253 -185.405  255 255 255
-1.30671 4.33132 -33.6802  255 255 255
10.2047 -5.97501 -14.497  255 255 255
10.7254 -7.20432 -14.6743  255 255 255
28.4951 -15.4552 -7.22942  255 255 255
4.90659 -3.04816 -36.5613  255 255 255
-1.83135 16.857 -31.121  255 255 255
83.914 72.2403 6.2481  255 255 255
90.6257 53.0073 8.9069  255 255 255
105.362 39.7639 -95.7363  255 255 255
120.302 8.75069 -44.4642  255 255 255
-9.22084 3.39325 -29.5294  255 255 255
133.104 3.33992 -194.596  255 255 255
1.92064 -8.24905 -130.794  255 255 255
131.615 -17.8538 -208.794  255 255 255
85.8403 -23.6254 -118.162  255 255 255
-29.251 -14.8737 -2.43191  255 255 255
78.5609 -17.016 -15.5134  255 255 255
20.7303 41.6687 -287.543  255 255 255
131.459 30.0544 -263.892  255 255 255
118.214 8.46439 -20.4758  255 255 255
-19.5428 -11.7545 14.8907  255 255 255
-93.2865 -132.853 -81.5663  255 255 255
24.0174 58.6478 -182.45  255 255 255
14.0762 -6.4383 -79.89  255 255 255
77.56 -15.4006 -25.8637  255 255 255
125.599 -5.95622 -154.01  255 255 255
73.5302 -19.9239 -22.7091  255 255 255
135.858 51.7316 -325.405  255 255 255
110.485 42.8989 -299.41  255 255 255
116.368 32.7251 -272.331  255 255 255
121.316 8.45801 -120.623  255 255 255
4.53829 -7.29065 -19.6632  255 255 255
-18.2829 -10.7096 10.8451  255 255 255
75.3986 -18.2806 -7.36093  255 255 255
1.18013 62.0169 -22.6307  255 255 255
93.7674 48.2852 7.50889  255 255 255
96.2553 46.2477 7.92771  255 255 255
110.829 58.8453 -186.07  255 255 255
115.576 12.0676 22.6708  255 255 255
125.516 2.25237 -126.701  255 255 255
153.9 -5.5724 -60.9334  255 255 255
29.0027 -16.3011 -1.81528  255 255 255
79.243 -16.7631 -16.2379  255 255 255
6.44489 40.2631 -18.2737  255 255 255
115.473 60.9873 -88.3698  255 255 255
115.634 -2.44283 7.42722  255 255 255
-1.2156 -14.2048 -120.193  255 255 255
-17.5559 -11.4137 6.7179  255 255 255
24.0494 -13.3966 -1.58889  255 255 255
18.3064 -15.7172 2.58485  255 255 255
-0.638898 64.2035 41.7547  255 255 255
-13.0476 -17.7813 52.6547  255 255 255
-5.68754 -11.4731 -56.0025  255 255 255
-8.2303 -16.24 -49.9551  255 255 255
76.7147 -14.7576 -27.5776  255 255 255
100.131 57.0781 -96.4498  255 255 255
101.284 -2.4168 3.7061  255 255 255
22.6146 -15.521 2.28027  255 255 255
117.653 45.3284 -293.66  255 255 255
112.047 10.1306 -1.52805  255 255 255
99.7353 74.2646 15.2065  255 255 255
23.1169 57.7689 -176.935  255 255 255
108.989 43.2852 -295.665  255 255 255
98.2754 8.10056 6.9112  255 255 255
125.493 9.20959 -115.167  255 255 255
128.798 -7.65024 -89.8446  255 255 255
134.506 -13.2687 -205.282  255 255 255
119.646 -9.94154 -78.171  255 255 255
86.6588 67.8481 6.56573  255 255 255
0.212097 70.8073 -11.4554  255 255 255
19.9473 65.6639 -86.0304  255 255 255
109.879 51.493 -299.141  255 255 255
127.614 7.70501 -93.5768  255 255 255
105.489 2.99939 -99.6382  255 255 255
85.7852 65.3568 2.06712  255 255 255
11.8234 65.11 -19.0543  255 255 255
96.6254 42.3099 8.04786  255 255 255
86.9059 70.6074 8.02097  255 255 255
129.89 -9.81495 -177.465  255 255 255
124.399 27.8759 -245.846  255 255 255
-5.25002 15.6655 -27.8515  255 255 255
-6.24675 -8.52106 -39.5567  255 255 255
-17.1502 -11.1404 10.8917  255 255 255
93.904 49.6236 7.57471  255 255 255
94.7899 48.6166 7.34202  255 255 255
123.816 -27.0876 -25.5571  255 255 255
80.6328 -23.5807 -76.4427  255 255 255
86.1497 71.7028 6.25325  255 255 255
84.8811 65.2625 5.77928  255 255 255
11.0254 75.4788 -11.193  255 255 255
0.594748 74.8424 -11.6975  255 255 255
-2.51581 70.3411 -11.0024  255 255 255
3.13587 69.6011 -12.4483  255 255 255
1.89842 55.2658 -15.1122  255 255 255
1.86549 54.0928 -14.1669  255 255 255
15.1956 73.2236 -86.3  255 255 255
97.6819 67.747 -96.1278  255 255 255
113.128 54.1801 -92.8444  255 255 255
26.0245 64.244 -185.531  255 255 255
-11.2138 18.6828 -28.2697  255 255 255
-10.7026 18.0367 -27.4928  255 255 255
120.494 4.73596 -51.812  255 255 255
-12.1634 -2.10605 17.7599  255 255 255
-174.558 -11.3711 -175.995  255 255 255
79.2109 -18.9908 -57.4101  255 255 255
2.57752 -9.89554 34.0264  255 255 255
83.0002 -17.3982 -16.735  255 255 255
-15.2733 -15.9591 1.03025  255 255 255
77.8443 -14.2792 22.6723  255 255 255
93.6974 75.2182 15.4908  255 255 255
86.9664 69.8735 8.43485  255 255 255
84.5692 64.9289 6.96741  255 255 255
12.055 74.9036 -11.9677  255 255 255
85.5617 63.2904 3.93886  255 255 255
4.03856 72.3164 -10.1186  255 255 255
4.97165 74.694 -12.6665  255 255 255
-4.08146 69.7852 -10.1553  255 255 255
-3.35467 69.1884 -10.9485  255 255 255
99.0318 52.1071 13.1744  255 255 255
98.0846 53.4389 9.10491  255 255 255
-2.03802 63.4507 -11.2863  255 255 255
4.57493 55.3699 -16.2487  255 255 255
19.259 60.615 -89.8675  255 255 255
-17.9238 -9.29592 11.3053  255 255 255
-16.4544 -19.5181 4.6983  255 255 255
7.29011 -19.4307 32.6696  255 255 255
5.87567 -19.2692 32.8498  255 255 255
85.6093 71.9104 5.13468  255 255 255
101.676 54.6836 -96.2091  255 255 255
-16.0171 -9.3612 -0.303751  255 255 255
82.0076 -16.2778 -10.7889  255 255 255
84.4728 72.0581 8.33035  255 255 255
87.8772 69.9236 8.62168  255 255 255
2.67463 70.9768 -7.92418  255 255 255
-2.16738 68.7977 -12.9762  255 255 255
-12.3472 2.39903 -2.16013  255 255 255
-17.5046 -10.9763 8.82952  255 255 255
-18.2978 -19.9686 11.4546  255 255 255
87.2932 70.0868 9.93919  255 255 255
3.88839 71.4741 -14.4603  255 255 255
4.26966 66.4873 -10.8402  255 255 255
97.2823 16.2629 6.14315  255 255 255
-18.672 -10.7673 11.3074  255 255 255
-18.1435 -16.6267 10.495  255 255 255
7.19547 -17.8377 32.087  255 255 255
86.671 71.4193 7.69267  255 255 255
9.15156 72.7754 -10.1815  255 255 255
9.5827 73.4295 -10.2987  255 255 255
15.7474 72.9499 -12.9654  255 255 255
90.6685 58.2507 4.6854  255 255 255
123.521 -20.8265 -117.858  255 255 255
1.82041 69.2441 -14.3143  255 255 255
5.83258 66.5786 -15.008  255 255 255
0.243685 62.7677 -21.7214  255 255 255
6.61137 62.8915 -13.4549  255 255 255
-2.80608 67.6588 -12.5051  255 255 255
13.5097 66.6704 -81.4005  255 255 255
82.0236 -11.4557 39.5405  255 255 255
453.761 -534.904 -1146.52  255 255 255
-19.9402 43.5976 65.3399  255 255 255
-0.919087 64.2287 -17.6209  255 255 255
12.7229 61.581 -19.8654  255 255 255
114.857 62.6503 -88.4685  255 255 255
96.4412 15.6775 67.7836  255 255 255
-17.7989 12.8025 73.1005  255 255 255
-17.8938 12.0343 69.0721  255 255 255
98.0722 7.97248 5.91922  255 255 255
117.293 -0.29888 -16.0071  255 255 255
119.262 -2.89109 -22.6478  255 255 255
-22.1993 -6.94157 71.9184  255 255 255
77.682 -12.6036 33.963  255 255 255
119.044 4.95416 -9.20739  255 255 255
16.1086 -15.7427 24.5235  255 255 255
10.8352 63.0601 -81.4259  255 255 255
118.436 11.0533 -13.3369  255 255 255
-11.015 2.80762 83.8216  255 255 255
117.617 2.36224 0.932201  255 255 255
117.542 3.07518 1.38168  255 255 255
-3.2668 1.33715 88.141  255 255 255
73.9309 -21.2031 14.0125  255 255 255
55.4458 -18.4221 80.59  255 255 255
5.11519 69.025 -16.7089  255 255 255
1.46049 15.0675 64.3374  255 255 255
120.231 3.24279 -22.1754  255 255 255
94.4577 1.45947 68.9759  255 255 255
-2.39343 2.31454 88.4676  255 255 255
101.838 -20.7184 15.7521  255 255 255
-15.6695 -17.7196 52.9519  255 255 255
-13.7023 -17.1347 52.9765  255 255 255
7.57092 86.5784 38.0061  255 255 255
-18.2341 7.56285 68.6834  255 255 255
1.56875 56.2787 -78.9799  255 255 255
12.4852 -8.76463 -5.16015  255 255 255
89.4405 74.2511 11.8838  255 255 255
87.4544 73.8931 11.5958  255 255 255
-1.9863 70.2892 -8.73638  255 255 255
15.6233 70.6682 -12.0042  255 255 255
16.3725 70.6062 -15.4849  255 255 255
-3.70445 65.5902 -14.5257  255 255 255
2.264 53.3799 -14.5915  255 255 255
8.99659 73.564 -77.4199  255 255 255
5.06008 72.9753 -79.0881  255 255 255
113.5 62.4487 -97.5094  255 255 255
16.3046 55.7772 -83.9466  255 255 255
-12.9091 18.6009 -28.4189  255 255 255
-15.4466 16.4971 -28.296  255 255 255
-8.64486 11.6697 -30.5762  255 255 255
-10.0972 10.2944 -29.9838  255 255 255
-13.5693 7.73117 -28.3042  255 255 255
120.888 5.67147 -47.9206  255 255 255
121.118 5.00954 -41.4404  255 255 255
119.957 3.97538 -40.9953  255 255 255
122.074 2.84286 -51.8066  255 255 255
-11.0762 -0.325386 -21.983  255 255 255
-9.54589 0.874824 -13.2671  255 255 255
-11.1683 -0.226613 -13.1276  255 255 255
122.975 0.107051 -80.1812  255 255 255
-6.00007 -6.4456 -62.4489  255 255 255
-9.28301 -6.06108 -8.13457  255 255 255
-2.26409 -8.03192 -63.2673  255 255 255
-5.77848 -7.40586 -68.2618  255 255 255
121.371 -7.82262 -77.2614  255 255 255
83.9397 -6.28258 0.254458  255 255 255
-6.32141 -23.2968 -82.903  255 255 255
123.171 -21.9966 -58.5595  255 255 255
77.1428 -16.9779 -17.8847  255 255 255
83.8958 -17.4731 -17.4788  255 255 255
-15.7875 -15.6053 1.06047  255 255 255
52.6844 -22.8176 -10.2393  255 255 255
10.7212 -16.7808 27.5941  255 255 255
8.95206 -19.7535 30.4057  255 255 255
143.155 -197.506 -312.241  255 255 255
86.8949 74.6122 10.232  255 255 255
88.2358 70.8794 5.02851  255 255 255
86.5649 67.5579 7.18404  255 255 255
-2.60162 66.6914 -14.1799  255 255 255
2.33014 66.7714 -15.8175  255 255 255
2.54011 54.2719 -16.1196  255 255 255
118.743 5.85541 -20.3767  255 255 255
118.589 5.13568 -19.6407  255 255 255
-10.9864 0.966867 1.40065  255 255 255
-8.66301 0.104676 -16.4075  255 255 255
-7.23907 -15.2051 -71.3957  255 255 255
76.0106 -18.2162 -38.8848  255 255 255
-10.7769 -14.8233 -7.82581  255 255 255
35.6112 -18.4689 -7.36776  255 255 255
75.532 -16.8823 22.1775  255 255 255
76.7594 -15.8002 22.172  255 255 255
77.826 -15.6812 22.4187  255 255 255
11.8128 -17.4458 27.5449  255 255 255
0.181925 70.681 -11.1598  255 255 255
16.3711 70.0132 -15.0908  255 255 255
8.7662 54.2379 -16.0601  255 255 255
4.93485 42.0962 -18.1772  255 255 255
112.88 63.1611 -88.7093  255 255 255
110.398 62.0409 -95.0642  255 255 255
120.017 4.56884 -47.8855  255 255 255
123.762 -4.60591 -81.639  255 255 255
-6.55498 -17.8293 -71.8488  255 255 255
27.8024 -16.6478 -0.266902  255 255 255
-16.5083 -20.5345 5.33152  255 255 255
88.1965 73.5102 12.4931  255 255 255
94.9431 47.5528 8.85306  255 255 255
11.4012 71.0207 -78.7614  255 255 255
110.829 69.7035 -90.0322  255 255 255
-15.7583 15.0836 -28.7325  255 255 255
119.258 -2.42983 -30.7935  255 255 255
13.1935 67.1165 -21.2785  255 255 255
12.585 61.1297 -19.3838  255 255 255
8.87303 71.5012 -76.4618  255 255 255
95.9855 30.359 4.41514  255 255 255
18.3193 65.9777 -87.1383  255 255 255
120.491 4.75136 -24.1791  255 255 255
120.62 -1.56315 -22.4462  255 255 255
85.8757 73.3167 9.98085  255 255 255
91.5685 54.579 7.93336  255 255 255
92.2268 60.7328 0.600268  255 255 255
90.7845 53.4937 7.15279  255 255 255
10.473 61.114 -21.364  255 255 255
9.83909 59.5817 -20.3371  255 255 255
